ply
format ascii 1.0
comment VCGLIB generated
element vertex 1090
property float x
property float y
property float z
property uchar red
property uchar green
property uchar blue
property uchar alpha
element face 0
property list uchar int vertex_indices
end_header
13.02071 35.79915 0.9931 238 240 236 255 
12.71099 35.4115 1.31324 240 239 237 255 
11.80617 35.56362 1.41717 224 219 214 255 
11.80617 36.12333 1.05456 225 221 218 255 
10.68676 35.68674 1.50692 221 198 203 255 
10.68676 36.24644 1.13015 215 192 190 255 
9.56736 35.77042 1.56996 227 213 206 255 
9.56736 36.33013 1.18403 240 221 215 255 
8.48639 35.92766 1.54673 249 248 241 255 
8.88514 36.37197 1.2112 250 249 244 255 
7.32855 35.82089 1.75306 246 247 244 255 
6.26551 35.77047 2.01927 244 243 241 255 
5.92995 35.36371 2.40217 240 235 217 255 
5.08975 35.53008 2.53063 244 247 244 255 
5.08975 36.08979 2.11869 243 247 249 255 
3.97035 35.73035 2.69763 237 243 233 255 
3.97035 36.29006 2.26277 205 211 190 255 
2.87568 35.82848 2.89156 229 233 220 255 
3.39872 36.37702 2.32632 203 211 188 255 
2.35265 35.27995 3.45631 234 227 219 255 
1.73154 35.40934 3.56273 236 237 225 255 
1.73154 35.96904 3.1119 236 237 225 255 
0.61214 35.66582 3.78336 227 214 210 255 
0.61214 36.22552 3.31625 230 214 204 255 
-0.38826 35.89136 4.0561 223 202 192 255 
0.03216 36.3682 3.43074 223 203 198 255 
-0.80867 35.41454 4.6955 227 223 215 255 
-1.7213 35.80096 4.86216 227 224 206 255 
-1.41124 36.16082 4.36172 228 221 190 255 
-2.64832 35.85043 5.37062 230 230 174 255 
-2.95628 35.49697 5.87644 227 228 200 255 
-3.89239 35.80429 6.20933 231 229 185 255 
-3.48946 36.24325 5.54293 234 231 169 255 
-4.29535 35.36532 6.86626 230 228 199 255 
-5.06929 35.77142 7.06844 227 223 212 255 
-4.75244 36.11159 6.54222 228 225 214 255 
-5.9972 35.88662 7.63793 220 220 211 255 
-6.29893 35.55732 8.17229 222 225 187 255 
-7.13965 35.88871 8.50752 211 227 190 255 
-6.75965 36.30357 7.81541 195 219 202 255 
-7.51962 35.47383 9.22026 210 224 212 255 
-8.34517 35.81826 9.55383 210 224 212 255 
-7.98096 36.22011 8.84275 186 212 202 255 
-8.70938 35.41642 10.27425 224 228 212 255 
-9.53081 35.7723 10.61313 206 220 210 255 
-9.17253 36.16268 9.88743 185 208 204 255 
-42.47631 35.2731 11.21888 218 231 218 255 
-9.8891 35.3819 11.35313 220 223 210 255 
-10.67917 35.74288 11.69684 179 198 152 255 
-10.32063 36.12817 10.95201 205 220 209 255 
-42.00883 35.72162 11.84034 246 247 245 255 
-41.19121 35.42388 12.24025 254 255 255 255 
-42.61002 36.01938 11.44044 227 239 228 255 
-11.03771 35.3576 12.43271 161 180 134 255 
-11.80362 35.73249 12.78764 144 174 107 255 
-11.44847 36.10387 12.04054 140 176 133 255 
-39.76964 35.74354 13.24221 254 255 255 255 
-39.07688 35.31884 13.39944 254 255 255 255 
-40.81315 35.80656 12.6828 254 255 255 255 
-41.54137 36.17015 12.46706 251 250 246 255 
-12.15878 35.3611 13.54827 174 183 151 255 
-12.94301 35.72108 13.89539 211 226 174 255 
-12.58071 36.10737 13.14257 179 208 170 255 
-38.69593 35.68605 14.11419 254 255 255 255 
-37.96067 35.307 14.50251 254 254 255 255 
-39.452 36.06511 13.72586 250 252 249 255 
-13.30531 35.3348 14.62975 229 222 205 255 
-14.0777 35.69368 14.98738 216 221 204 255 
-13.70421 36.08108 14.24251 217 210 200 255 
-37.72318 35.52194 15.11754 254 254 255 255 
-38.29051 36.08165 15.11754 246 246 247 255 
-14.45119 35.30627 15.71894 213 225 210 255 
-15.0595 35.56666 15.96011 204 219 212 255 
-15.0595 36.12637 15.42024 197 201 201 255 
-16.02123 35.96724 16.37119 171 189 185 255 
-15.63053 36.36967 15.66438 184 189 184 255 
-37.38134 35.89644 16.15204 194 186 192 255 
-36.58433 35.48358 16.47955 164 152 157 255 
-38.07721 36.30932 15.82454 224 224 225 255 
-16.41194 35.56479 17.03767 130 172 167 255 
-17.24668 35.86041 17.39286 126 152 182 255 
-16.81165 36.31105 16.73211 160 183 187 255 
-35.20876 35.47435 17.6602 220 216 213 255 
-34.61576 35.28007 17.88068 224 223 216 255 
-36.25693 35.8782 17.29694 162 165 176 255 
-37.08758 36.22985 16.99586 142 154 167 255 
-17.68172 35.40977 18.00543 139 164 168 255 
-18.41578 35.79811 18.27696 173 189 209 255 
-18.04135 36.15604 17.74804 146 165 177 255 
-19.2915 35.82089 18.84697 192 195 191 255 
-32.96995 35.48498 18.85177 236 211 188 255 
-32.35229 35.30251 18.98506 231 205 183 255 
-34.17792 35.7723 18.5163 233 232 230 255 
-35.20876 36.03405 18.21892 226 227 224 255 
-35.92953 36.27281 18.01482 225 225 225 255 
-19.8512 35.82089 19.10591 177 186 193 255 
-20.65652 35.82089 19.39389 199 195 200 255 
-21.77592 35.82089 19.7226 161 186 192 255 
-22.89533 35.82089 19.96425 159 167 184 255 
-23.64339 35.82089 20.09532 204 208 209 255 
-29.61174 35.53434 20.03109 184 185 193 255 
-28.91335 35.33486 20.10469 147 164 204 255 
-30.70084 35.88327 19.8862 230 230 228 255 
-31.92772 35.73375 19.4042 226 216 208 255 
-32.96995 36.04468 19.22433 228 215 187 255 
-33.74005 36.26453 19.09098 233 230 210 255 
-24.2031 35.82089 20.16826 203 207 208 255 
-25.13413 35.82089 20.26072 201 199 192 255 
-26.25353 35.82089 20.3197 201 200 193 255 
-27.37294 35.82089 20.31161 143 167 198 255 
-28.52107 35.75315 20.23231 130 162 199 255 
-29.61174 36.09405 20.19767 197 198 204 255 
-30.30751 36.29801 20.15118 230 229 229 255 
16.04696 36.9403 -0.7046 157 170 192 255 
15.18105 36.91439 -0.16925 170 190 207 255 
14.81903 36.52399 0.17942 181 198 231 255 
14.04497 36.68562 0.26888 215 227 235 255 
14.04497 37.24533 -0.02839 225 228 231 255 
12.81531 36.98634 0.33075 234 235 234 255 
13.11493 37.39018 0.04613 230 231 232 255 
11.80617 36.9403 0.53726 232 229 224 255 
10.68676 36.9403 0.67717 220 192 191 255 
9.56736 36.9403 0.78017 212 193 188 255 
8.48639 36.83974 0.91808 250 250 245 255 
8.13887 36.39957 1.22932 237 234 224 255 
7.32855 36.47377 1.28007 246 247 245 255 
7.32855 37.03348 0.89732 245 246 234 255 
6.20915 36.6402 1.40274 245 246 245 255 
6.20915 37.1999 1.00523 244 245 243 255 
5.08975 36.83098 1.56267 198 207 192 255 
5.08975 37.39068 1.13837 207 225 213 255 
4.0449 37.04413 1.64008 171 203 167 255 
4.46774 37.48648 1.2067 189 207 194 255 
2.95573 36.89017 1.99896 159 199 168 255 
2.65245 36.48361 2.41691 210 219 196 255 
1.73154 36.64686 2.55588 218 232 220 255 
1.73154 37.20657 2.08217 218 232 220 255 
0.55275 36.97955 2.69197 0 0 0 255 
0.88628 37.37886 2.22875 0 0 0 255 
-0.40749 36.94064 3.12737 231 193 153 255 
-0.71411 36.56772 3.62036 229 199 169 255 
-1.77537 36.85523 3.9137 233 225 186 255 
-1.39324 37.31399 3.2693 228 197 165 255 
-2.1575 36.39649 4.56914 239 231 199 255 
-2.74607 36.58192 4.75146 231 227 184 255 
-2.74607 37.14163 4.20839 236 236 205 255 
-3.84573 36.95188 5.13467 226 227 179 255 
-3.45572 37.3794 4.43961 232 236 204 255 
-4.23573 36.52436 5.80086 233 229 167 255 
-5.10601 36.84162 6.13226 226 230 203 255 
-4.71329 37.27062 5.46777 215 224 209 255 
-5.49871 36.41263 6.80914 220 225 218 255 
-6.10428 36.6249 7.02377 216 221 212 255 
-6.10428 37.1846 6.48287 216 221 211 255 
-7.14245 36.99624 7.38335 180 204 190 255 
-6.77897 37.42058 6.69832 207 211 205 255 
-7.50592 36.5719 8.10139 148 177 186 255 
-8.38042 36.91914 8.42078 142 159 183 255 
-8.03362 37.31818 7.69263 114 139 191 255 
-8.72723 36.52007 9.14606 142 159 183 255 
-9.54847 36.87333 9.49369 147 164 181 255 
-9.17816 37.26635 8.74017 114 129 209 255 
-9.9188 36.48035 10.21065 187 205 202 255 
-10.69964 36.83939 10.56196 184 206 196 255 
-10.33239 37.22662 9.84134 192 200 199 255 
-11.0669 36.45217 11.29918 167 192 180 255 
-11.8206 36.8231 11.66864 193 213 188 255 
-11.44648 37.19842 10.91327 191 211 185 255 
-42.74788 36.97134 11.79925 255 255 255 255 
-42.28763 36.6189 12.1818 255 255 255 255 
-12.19474 36.44777 12.40121 163 196 159 255 
-12.96137 36.81312 12.75749 196 216 196 255 
-12.59576 37.19405 12.0381 211 210 185 255 
-40.80577 36.61911 13.23786 254 255 255 255 
-40.19828 36.41813 13.40838 254 255 253 255 
-41.86874 37.01311 12.81588 255 255 255 255 
-42.52887 37.36516 12.42335 255 255 255 255 
-13.32697 36.4322 13.50115 198 228 190 255 
-14.0877 36.80207 13.85905 200 189 177 255 
-13.7249 37.17845 13.11377 208 190 171 255 
-39.83932 36.80184 14.13052 254 255 255 255 
-39.06124 36.43929 14.46722 253 254 254 255 
-40.80577 37.17881 13.76881 255 255 255 255 
-41.44983 37.40733 13.53091 255 255 255 255 
-14.45049 36.42568 14.60363 200 194 188 255 
-15.16668 36.85542 14.80813 198 181 167 255 
-14.865 37.17197 14.21693 199 169 149 255 
-16.07376 37.0302 15.43006 200 193 179 255 
-38.85021 36.62944 15.11754 252 253 253 255 
-39.49431 37.18915 15.11754 254 255 255 255 
-16.37681 36.71699 15.99075 188 195 191 255 
-17.16805 37.05712 16.34695 186 191 187 255 
-16.7782 37.46324 15.6402 201 195 180 255 
-38.52418 36.96067 16.20878 191 198 205 255 
-37.83386 36.52136 16.56591 152 158 166 255 
-39.26317 37.39997 15.85166 219 218 230 255 
-17.5579 36.65101 17.00668 154 173 184 255 
-18.36775 37.00719 17.40535 202 204 197 255 
-17.94787 37.39727 16.70314 205 202 195 255 
-37.47732 36.90595 17.39284 149 166 185 255 
-36.6758 36.54424 17.73723 170 182 180 255 
-38.22489 37.26763 17.04845 156 172 190 255 
-18.78763 36.61711 18.07548 193 195 192 255 
-19.5917 36.88055 18.4454 196 196 190 255 
-19.10569 37.36337 17.80403 202 202 201 255 
-35.20876 36.71954 18.77494 238 238 236 255 
-34.48633 36.48037 18.95021 246 245 239 255 
-36.23561 37.01163 18.42043 228 228 228 255 
-37.12079 37.29052 18.08471 240 241 238 255 
-20.07772 36.39773 19.01957 199 197 188 255 
-20.74235 36.83863 19.12217 203 195 190 255 
-20.42644 37.144 18.81534 195 178 159 255 
-21.77592 36.9403 19.46856 212 200 202 255 
-22.89533 36.9403 19.81609 211 210 207 255 
-23.84934 36.9403 20.04643 195 202 195 255 
-31.85055 36.7528 19.95936 229 230 222 255 
-31.05379 36.53205 20.07103 236 234 233 255 
-32.89168 37.03525 19.80381 237 239 227 255 
-34.10365 36.88823 19.33628 242 240 236 255 
-35.20876 37.27924 19.14598 241 240 233 255 
-35.79545 37.479 19.02437 249 249 249 255 
-24.40904 36.9403 20.14898 188 187 189 255 
-25.13413 36.9403 20.23792 187 183 192 255 
-26.25353 36.9403 20.33863 210 207 208 255 
-27.37294 36.9403 20.39516 202 199 202 255 
-28.49234 36.9403 20.41775 186 185 189 255 
-29.61174 36.9403 20.3837 226 229 224 255 
-30.70084 36.91924 20.25619 214 218 212 255 
-31.85055 37.3125 20.18812 216 220 218 255 
-32.46639 37.47169 20.13473 229 231 228 255 
15.81427 37.69948 -0.92238 163 178 188 255 
15.14934 38.06745 -0.77681 209 214 219 255 
14.04497 38.0597 -0.45183 229 230 230 255 
12.81531 37.9483 -0.19184 233 232 230 255 
12.36866 37.50091 0.10544 243 244 244 255 
11.80617 37.57115 0.14372 239 240 239 255 
11.80617 38.13085 -0.15962 241 241 241 255 
10.68676 37.68495 0.20802 231 227 221 255 
10.68676 38.24465 -0.11097 245 243 239 255 
9.56736 37.76538 0.25715 237 233 227 255 
9.56736 38.32508 -0.06953 237 233 227 255 
8.44796 37.8226 0.29171 237 230 213 255 
8.44796 38.3823 -0.03514 234 225 212 255 
7.32855 37.89168 0.3413 246 247 244 255 
7.32855 38.45138 0.00477 248 249 246 255 
6.14352 38.12373 0.38832 240 242 239 255 
6.4729 38.53955 0.05521 244 245 242 255 
5.08975 38.0597 0.64795 227 231 229 255 
4.0449 37.98819 0.88523 190 206 195 255 
3.72146 37.56741 1.26916 137 203 172 255 
2.85094 37.68338 1.36247 134 202 159 255 
2.85094 38.24308 0.91316 166 195 173 255 
1.73154 37.87916 1.52615 200 227 209 255 
1.73154 38.43886 1.07056 200 227 209 255 
0.59557 38.05513 1.7615 0 0 0 255 
1.05113 38.57472 1.18071 226 236 228 255 
0.14003 37.53553 2.35903 229 212 193 255 
-0.50727 37.68764 2.5007 232 182 143 255 
-0.50727 38.24732 1.99683 222 207 199 255 
-1.76536 37.99272 2.8102 228 189 180 255 
-1.39119 38.4609 2.17955 220 207 194 255 
-2.13952 37.52454 3.46567 230 224 211 255 
-2.74607 37.70157 3.65236 239 233 220 255 
-2.74607 38.26127 3.08268 239 235 224 255 
-3.83471 38.07447 4.02132 230 229 218 255 
-3.46743 38.49048 3.31186 221 218 210 255 
-4.202 37.65847 4.72641 216 219 215 255 
-5.09551 37.97611 5.03153 212 214 211 255 
-4.73145 38.40472 4.34439 204 204 190 255 
-5.45957 37.54748 5.7223 216 224 216 255 
-6.10428 37.737 5.92685 212 215 211 255 
-6.10428 38.29671 5.33898 202 195 197 255 
-7.17543 38.08726 6.25327 209 217 232 255 
-6.82561 38.5148 5.55879 228 221 222 255 
-7.52524 37.6597 6.95129 177 194 220 255 
-8.42412 38.00691 7.27804 160 185 221 255 
-8.06832 38.40596 6.54958 200 221 224 255 
-8.77989 37.60783 7.99881 113 131 174 255 
-9.56226 37.97207 8.35009 133 154 188 255 
-9.20008 38.35411 7.60479 140 164 179 255 
-9.92444 37.59003 9.09998 148 169 203 255 
-10.7196 37.94657 9.43878 208 219 218 255 
-10.36051 38.3363 8.70137 216 220 216 255 
-11.07867 37.55685 10.17191 204 212 211 255 
-11.82633 37.93684 10.54254 202 208 197 255 
-11.45991 38.30311 9.77759 206 206 188 255 
-43.50036 37.62641 11.10952 246 246 246 255 
-12.19276 37.57057 11.29675 203 210 202 255 
-12.98303 37.92577 11.63635 199 202 178 255 
-12.62401 38.31685 10.91319 207 207 177 255 
-43.27318 38.02361 11.81255 232 236 230 255 
-43.73186 38.37269 11.46263 219 225 221 255 
-13.34203 37.53469 12.3724 187 172 151 255 
-14.09397 37.90478 12.74411 186 170 151 255 
-13.71675 38.28096 11.97596 203 201 175 255 
-42.67984 38.13008 12.8338 255 255 255 255 
-42.19609 37.80389 13.16471 255 255 255 255 
-14.47117 37.52859 13.47557 189 169 140 255 
-15.23836 37.89184 13.83701 210 200 156 255 
-14.86541 38.27484 13.11582 202 190 168 255 
-40.80577 37.72595 14.32483 255 255 255 255 
-40.22663 37.51909 14.53517 255 255 255 255 
-41.8218 38.16614 13.89071 255 255 255 255 
-42.51144 38.55016 13.50914 254 254 255 255 
-15.61128 37.50882 14.56892 208 193 175 255 
-16.17891 37.76958 14.82007 206 197 149 255 
-16.17891 38.32928 14.27282 208 187 154 255 
-17.14347 38.21433 15.26776 196 170 139 255 
-16.76247 38.59687 14.53967 191 170 138 255 
-40.05401 37.72285 15.11754 255 255 255 255 
-40.7567 38.29532 15.05846 255 255 255 255 
-41.44749 38.5284 14.64838 253 253 251 255 
-17.52447 37.83179 15.96178 204 192 163 255 
-18.29598 38.19092 16.34318 210 204 178 255 
-17.89783 38.57806 15.6367 198 172 142 255 
-39.64801 38.10749 16.18901 250 252 251 255 
-38.97114 37.69071 16.59302 169 178 189 255 
-40.35084 38.52429 15.78499 255 255 255 255 
-18.69415 37.80381 17.06266 207 207 202 255 
-19.44877 38.13771 17.42582 206 205 182 255 
-19.0456 38.55009 16.72456 206 199 186 255 
-38.57682 38.04386 17.38039 218 219 219 255 
-37.86705 37.65076 17.78981 193 197 200 255 
-39.28656 38.43696 16.97096 220 221 221 255 
-19.85195 37.72535 18.07398 197 196 188 255 
-20.71009 38.00761 18.4433 193 173 170 255 
-20.24745 38.4716 17.78899 206 196 192 255 
-37.403 38.10946 18.44968 250 250 250 255 
-36.54172 37.82186 18.82605 253 253 253 255 
-38.18248 38.39702 18.07331 241 241 241 255 
-21.17271 37.5436 19.03658 207 156 163 255 
-21.86537 37.97392 19.14394 183 146 165 255 
-21.55187 38.28987 18.81264 190 152 169 255 
-22.89533 38.0597 19.52359 218 215 214 255 
-24.11552 37.95943 19.93007 172 182 185 255 
-34.1443 38.05958 19.93959 231 223 199 255 
-33.21265 37.68637 20.04704 239 240 234 255 
-35.20876 38.0597 19.56087 234 227 202 255 
-36.23242 38.14088 19.16133 252 252 250 255 
-36.93893 38.56814 19.03999 253 253 252 255 
-24.55584 37.51948 20.12546 172 181 191 255 
-25.21646 37.95943 20.16111 150 165 194 255 
-24.89821 38.26574 20.05529 156 169 193 255 
-26.25353 38.0597 20.28069 207 212 216 255 
-27.37294 38.0597 20.40131 203 201 187 255 
-28.49234 38.0597 20.49696 202 199 190 255 
-29.61174 38.0597 20.54249 193 201 192 255 
-30.73115 38.0597 20.50559 194 200 199 255 
-31.85055 38.0597 20.40137 158 172 194 255 
-32.89168 38.05958 20.25279 176 182 199 255 
-33.80781 38.43264 20.19566 236 228 215 255 
14.76617 38.68777 -0.95968 219 224 228 255 
14.04497 38.87317 -0.87449 216 225 226 255 
14.04497 39.43288 -1.1913 179 208 216 255 
12.92557 39.10161 -0.77793 189 202 225 255 
12.92557 39.66131 -1.0435 156 183 216 255 
11.91718 39.29093 -0.76142 235 235 234 255 
12.36432 39.73862 -1.00714 180 208 241 255 
10.68676 39.17911 -0.618 242 242 243 255 
9.56736 39.17911 -0.5428 245 244 243 255 
8.44796 39.17911 -0.47427 234 228 221 255 
7.32855 39.17911 -0.39275 249 249 246 255 
6.14352 39.08118 -0.19722 238 238 235 255 
5.72662 38.64276 0.11826 237 235 231 255 
5.08975 38.7264 0.17059 228 220 209 255 
5.08975 39.2861 -0.17263 222 215 206 255 
3.97035 38.85823 0.25402 218 221 212 255 
3.97035 39.41793 -0.10683 215 220 212 255 
2.85094 39.00436 0.35714 203 212 201 255 
2.85094 39.56406 -0.01453 222 229 221 255 
1.75436 39.25566 0.47016 222 232 226 255 
2.14269 39.67982 0.06245 225 232 226 255 
0.65165 39.12728 0.88099 222 233 230 255 
0.30486 38.7196 1.29424 227 233 226 255 
-0.50727 38.88626 1.44081 228 233 227 255 
-0.50727 39.44596 0.97694 224 236 224 255 
-1.74017 39.13229 1.71645 233 238 232 255 
-1.34287 39.62128 1.11254 230 238 235 255 
-2.13747 38.64328 2.35111 234 232 223 255 
-2.74607 38.81108 2.52666 234 232 223 255 
-2.74607 39.37078 1.96642 226 229 221 255 
-3.86105 39.17766 2.87649 204 201 179 255 
-3.50842 39.59735 2.17991 221 197 164 255 
-4.21368 38.75797 3.60304 217 214 188 255 
-5.0567 38.93041 3.98308 203 167 165 255 
-4.98488 39.54252 3.22545 209 182 175 255 
-6.01816 39.42413 4.01287 203 171 181 255 
-5.5876 39.71166 3.41219 209 178 168 255 
-5.47772 38.6532 4.59529 203 167 165 255 
-6.10428 38.80613 4.78296 195 170 182 255 
-7.24592 39.17182 5.10876 224 230 229 255 
-6.91997 39.58083 4.39404 225 226 227 255 
-7.57189 38.76283 5.80822 212 220 223 255 
-8.45896 39.10454 6.13141 220 229 224 255 
-8.10332 39.50909 5.40008 228 232 230 255 
-8.8146 38.70001 6.86343 198 219 221 255 
-9.52893 38.92372 7.27376 200 218 214 255 
-9.46249 39.51206 6.52747 211 214 203 255 
-10.47739 39.54569 7.44291 214 210 196 255 
-10.03459 39.72901 6.76686 217 213 199 255 
-9.94635 38.68266 7.96001 200 218 214 255 
-10.67295 38.90111 8.37654 206 206 199 255 
-11.40047 39.48379 8.44529 209 207 157 255 
-11.14429 39.73664 7.88669 218 212 155 255 
-11.10678 38.65469 9.03623 207 206 173 255 
-11.84513 39.03659 9.40403 207 207 173 255 
-12.20618 38.67223 10.17183 207 207 177 255 
-12.92656 38.86688 10.59325 212 204 163 255 
-12.8207 39.48226 9.8393 211 206 146 255 
-13.66004 39.44882 10.66938 213 208 152 255 
-13.4016 39.71704 10.08947 210 204 148 255 
-13.37029 38.62765 11.2346 211 208 182 255 
-14.09755 39.01493 11.6125 211 207 186 255 
-43.8914 39.15623 11.81255 209 224 218 255 
-43.4855 38.76785 12.20399 231 247 240 255 
-14.46303 38.65591 12.37446 210 202 185 255 
-15.23226 39.01472 12.73724 205 208 190 255 
-14.85281 39.40219 11.99041 213 208 180 255 
-43.25518 39.15623 12.9174 255 255 255 255 
-43.71477 39.51412 12.56268 255 255 255 255 
-15.61169 38.62723 13.45709 210 203 187 255 
-16.26651 39.07185 13.68622 199 196 167 255 
-15.95177 39.37349 13.10003 207 210 191 255 
-17.02092 39.17911 14.29573 202 189 160 255 
-42.67278 39.25506 13.9301 255 255 255 255 
-42.19375 38.93256 14.2505 255 255 253 255 
-17.58062 39.17911 14.82636 209 196 168 255 
-18.32966 39.28055 15.43108 213 197 178 255 
-41.82523 39.28862 15.00647 255 255 255 255 
-41.09711 38.8984 15.38974 255 255 255 255 
-42.51485 39.67883 14.62319 255 255 255 255 
-18.64408 38.97505 15.98319 209 200 173 255 
-19.39277 39.3315 16.36322 184 171 158 255 
-18.99366 39.72133 15.65766 195 169 159 255 
-40.7388 39.25187 16.15055 255 255 255 255 
-40.03281 38.85908 16.52636 255 255 255 255 
-41.45672 39.64466 15.77476 255 255 255 255 
-19.79188 38.94166 17.04763 208 196 193 255 
-20.5725 39.26558 17.41579 208 193 200 255 
-20.15127 39.68792 16.74326 197 179 179 255 
-39.6483 39.22391 17.32139 255 255 255 255 
-38.92875 38.84249 17.71232 254 255 254 255 
-40.38047 39.60534 16.93046 255 255 255 255 
-20.99371 38.84322 18.07128 209 184 188 255 
-21.83425 39.12029 18.43107 210 182 188 255 
-21.37036 39.58948 17.78397 214 194 189 255 
-38.48805 39.26618 18.42158 254 255 254 255 
-37.6852 38.94359 18.81467 254 254 254 255 
-39.26376 39.58877 18.0285 255 255 254 255 
-22.29813 38.65108 19.0316 207 176 189 255 
-22.89533 38.91852 19.16915 213 205 209 255 
-22.89533 39.47822 18.8435 208 196 198 255 
-23.90678 39.28744 19.41043 190 191 190 255 
-23.46167 39.73281 19.00694 210 206 205 255 
-25.21646 39.09846 19.92534 143 167 195 255 
-35.20876 38.92713 19.9806 236 218 202 255 
-34.55408 38.68442 20.09648 239 221 206 255 
-36.23627 39.27433 19.73707 243 234 220 255 
-37.36626 39.26168 19.1852 253 254 248 255 
-38.04735 39.68986 19.03904 233 233 223 255 
-25.64449 38.67157 20.13204 159 171 205 255 
-26.31912 39.09846 20.17613 187 205 220 255 
-25.9897 39.41785 20.05857 157 187 211 255 
-27.37294 39.17911 20.33459 201 200 195 255 
-28.49234 39.17911 20.49245 205 203 196 255 
-29.61174 39.17911 20.59955 202 202 197 255 
-30.73115 39.17911 20.64705 180 192 194 255 
-31.85055 39.17911 20.64288 141 148 201 255 
-32.96995 39.17911 20.57049 198 202 198 255 
-34.1443 39.10617 20.34843 231 230 225 255 
-35.20876 39.48683 20.22179 232 221 205 255 
-35.80187 39.71096 20.13496 229 223 217 255 
12.92557 40.2985 -1.46872 171 199 219 255 
11.91718 40.21133 -1.23022 216 224 227 255 
11.61806 39.78007 -0.9862 236 238 240 255 
10.68676 39.84124 -0.95806 245 245 244 255 
10.68676 40.40094 -1.22528 245 245 244 255 
9.56736 39.92066 -0.9243 245 245 243 255 
9.56736 40.48037 -1.18236 247 247 245 255 
8.44796 39.99203 -0.89017 246 246 242 255 
8.44796 40.55173 -1.14989 244 244 241 255 
7.32855 40.06643 -0.84855 239 239 236 255 
7.32855 40.62613 -1.11787 237 236 233 255 
6.20915 40.15295 -0.79146 235 231 228 255 
6.20915 40.71265 -1.07972 225 223 220 255 
5.08975 40.24119 -0.72865 227 216 205 255 
5.08975 40.80088 -1.03794 221 211 203 255 
4.05866 40.40497 -0.7045 234 235 227 255 
4.49064 40.84907 -1.01227 224 213 205 255 
2.85094 40.2985 -0.45837 232 236 234 255 
1.75436 40.24186 -0.19537 218 224 222 255 
1.39643 39.83097 0.16753 210 224 221 255 
0.61214 39.96541 0.26819 201 221 213 255 
0.61214 40.52511 -0.13039 181 197 214 255 
-0.50727 40.1391 0.42093 182 208 207 255 
-0.50727 40.6988 -0.01721 158 193 207 255 
-1.64576 40.29523 0.64597 202 219 232 255 
-1.20238 40.80882 0.06425 166 200 221 255 
-2.08915 39.78165 1.25335 236 238 230 255 
-2.74607 39.93986 1.41041 236 200 189 255 
-2.74607 40.49956 0.87948 233 211 208 255 
-3.91513 40.27628 1.72545 227 183 166 255 
-3.57558 40.71028 1.06324 222 201 199 255 
-4.25468 39.84228 2.44111 229 203 175 255 
-4.98488 40.0305 2.66942 219 188 178 255 
-4.98488 40.5902 2.01091 223 213 196 255 
-6.02212 40.34076 2.93298 210 210 202 255 
-5.71038 40.77051 2.22157 206 218 193 255 
-6.33386 39.91101 3.65268 211 192 198 255 
-7.26534 40.11035 4.01287 224 225 224 255 
-7.22368 40.70031 3.2481 187 208 186 255 
-8.23983 40.65687 4.08362 219 219 213 255 
-7.79785 40.8486 3.42974 208 213 206 255 
-7.66624 39.82232 4.65871 226 228 226 255 
-8.42311 40.01472 5.06131 219 222 210 255 
-9.38204 40.58366 5.15358 215 214 183 255 
-8.95526 40.82187 4.51195 216 216 185 255 
-8.8496 39.77836 5.71324 225 229 226 255 
-9.46249 39.98258 5.97145 213 216 193 255 
-10.46127 40.42151 6.37688 218 214 186 255 
-10.14167 40.77055 5.55387 220 216 186 255 
-10.78085 40.07245 7.14533 218 214 186 255 
-11.54048 40.43763 7.48466 212 214 153 255 
-11.19041 40.81871 6.72826 218 219 195 255 
-11.96017 39.99508 8.44529 215 209 138 255 
-12.75309 40.5759 8.5085 209 214 134 255 
-12.33489 40.80281 7.82399 208 214 183 255 
-12.23034 39.76277 9.03046 215 209 138 255 
-12.8207 39.98715 9.28327 215 209 138 255 
-13.79529 40.44152 9.71955 206 211 131 255 
-13.44272 40.79226 8.92133 206 211 179 255 
-14.21975 40.01939 10.66938 212 207 178 255 
-14.78138 40.57909 10.66938 212 208 180 255 
-14.52249 40.83705 10.09101 206 207 194 255 
-14.47833 39.76094 11.24905 213 208 180 255 
-15.22582 40.13376 11.61957 212 206 186 255 
-44.45949 40.32487 11.83054 242 245 244 255 
-15.59908 39.76033 12.35867 207 206 185 255 
-16.30775 40.14466 12.7584 207 205 185 255 
-15.91745 40.50659 11.99007 207 204 182 255 
-43.93542 40.26971 12.9174 255 255 255 255 
-43.48779 39.87736 13.30404 255 255 255 255 
-16.69804 39.78269 13.48762 202 199 178 255 
-17.44276 40.14627 13.87203 203 204 184 255 
-17.04809 40.52898 13.15813 206 203 180 255 
-43.2973 40.26971 14.07704 255 255 255 255 
-43.71756 40.62364 13.75404 255 255 255 255 
-17.83743 39.76353 14.58082 208 199 181 255 
-18.4985 40.2014 14.8105 205 199 184 255 
-18.17923 40.50981 14.25645 209 203 187 255 
-19.25067 40.2985 15.41428 200 179 166 255 
-42.71644 40.36642 15.04335 255 255 255 255 
-42.20299 40.03855 15.36456 255 255 255 255 
-19.81037 40.2985 15.93713 191 163 154 255 
-20.57724 40.36935 16.5187 194 166 158 255 
-41.83419 40.39391 16.13213 255 255 255 255 
-41.12673 40.00301 16.51612 255 255 255 255 
-42.51968 40.78483 15.74814 255 255 255 255 
-20.89755 40.04345 17.04261 215 194 184 255 
-21.70135 40.36493 17.40441 203 181 153 255 
-21.28606 40.78973 16.7307 210 198 187 255 
-40.73657 40.37309 17.28049 255 255 255 255 
-40.01003 39.9969 17.67182 255 255 255 255 
-41.46537 40.74929 16.88916 255 255 255 255 
-22.11663 39.94011 18.04949 200 179 170 255 
-22.90738 40.30735 18.27847 205 190 184 255 
-22.5423 40.68639 17.76619 187 169 144 255 
-23.90678 40.3933 18.84671 215 202 190 255 
-39.59355 40.39896 18.38295 251 243 233 255 
-38.79363 40.05474 18.76986 244 238 235 255 
-40.34642 40.74316 17.99603 245 238 229 255 
-24.20792 40.08335 19.18262 210 204 202 255 
-25.03918 40.3933 19.40416 167 182 196 255 
-24.60273 40.82963 18.99657 204 195 195 255 
-26.31912 40.23262 19.92965 193 193 206 255 
-37.43285 40.33663 19.78189 230 219 201 255 
-36.54813 39.9889 19.98393 237 230 218 255 
-38.47909 40.37613 19.22318 237 216 206 255 
-39.17707 40.80102 19.05274 238 214 196 255 
-26.73598 39.81557 20.13862 203 199 204 255 
-27.39697 40.23262 20.21133 201 202 197 255 
-27.03985 40.56182 20.05847 204 195 204 255 
-28.49234 40.2985 20.41166 169 169 156 255 
-29.61174 40.2985 20.5777 204 203 193 255 
-30.73115 40.2985 20.70858 210 211 198 255 
-31.85055 40.2985 20.79462 211 213 206 255 
-32.96995 40.2985 20.81134 223 223 217 255 
-34.08935 40.2985 20.73061 207 205 199 255 
-35.20876 40.2985 20.5349 198 204 212 255 
-36.23627 40.33663 20.27558 229 226 217 255 
-37.04992 40.73517 20.18821 234 219 210 255 
12.92557 41.01177 -1.98829 197 206 213 255 
11.80617 41.23478 -1.84196 223 227 231 255 
11.80617 41.79449 -2.26063 219 224 227 255 
10.67993 41.49166 -1.82816 215 221 228 255 
11.04851 41.91396 -2.15705 215 221 227 255 
9.56736 41.4179 -1.66588 237 239 239 255 
8.44796 41.4179 -1.59685 239 239 236 255 
7.32855 41.4179 -1.52703 236 236 233 255 
6.20915 41.4179 -1.45023 232 228 219 255 
5.08975 41.4179 -1.36587 219 211 202 255 
4.05866 41.35642 -1.22397 236 238 230 255 
3.74439 40.94227 -0.96175 235 236 229 255 
2.85094 41.05281 -0.89487 228 234 225 255 
2.85094 41.61251 -1.2089 227 228 216 255 
1.73154 41.18716 -0.79457 210 211 198 255 
1.73154 41.74686 -1.14721 222 212 180 255 
0.61214 41.31708 -0.68641 208 204 202 255 
0.61214 41.87678 -1.07464 216 199 185 255 
-0.45647 41.51515 -0.63176 191 201 218 255 
-0.04948 41.95309 -1.02445 216 215 221 255 
-1.59597 41.36302 -0.24605 201 216 224 255 
-1.94866 40.95331 0.17941 210 228 229 255 
-2.74607 41.12258 0.32347 228 223 221 255 
-2.74607 41.68228 -0.13581 232 230 232 255 
-3.93513 41.38681 0.60818 219 205 189 255 
-3.5484 41.86187 0.00462 222 213 201 255 
-4.32185 40.91174 1.27099 221 190 182 255 
-4.98488 41.05898 1.45489 221 214 200 255 
-4.98488 41.61868 0.8328 221 215 196 255 
-6.09181 41.26731 1.81976 213 216 205 255 
-6.10428 41.85018 1.06467 211 213 205 255 
-7.12873 41.75765 1.80048 145 169 149 255 
-6.69228 41.9667 1.20364 147 171 151 255 
-6.45664 40.96366 2.45377 199 213 187 255 
-7.22368 41.15114 2.69209 193 214 192 255 
-8.25985 41.49381 2.95354 217 221 204 255 
-7.97558 41.88959 2.18944 156 192 160 255 
-8.54412 41.09805 3.77059 213 217 211 255 
-9.43243 41.46659 4.03902 222 220 182 255 
-9.16333 41.84433 3.2187 205 214 188 255 
-9.70154 41.08884 4.81251 217 216 167 255 
-10.57349 41.46232 5.1256 219 220 166 255 
-10.25903 41.83512 4.30745 219 220 166 255 
-10.88793 41.08953 5.9869 219 218 207 255 
-11.6419 41.45653 6.27321 219 217 207 255 
-11.34711 41.83579 5.43867 217 218 185 255 
-11.93668 41.07725 7.08263 209 217 213 255 
-12.77613 41.46408 7.40269 198 208 203 255 
-12.47112 41.82351 6.55954 195 211 207 255 
-13.08114 41.10465 8.17996 205 211 177 255 
-13.85555 41.49855 8.53024 187 195 189 255 
-13.52212 41.8509 7.72275 142 167 175 255 
-14.18898 41.14618 9.34964 206 207 193 255 
-14.93237 41.55262 9.72086 207 203 191 255 
-14.596 41.89246 8.88051 156 167 176 255 
-15.34108 41.14025 10.66938 210 203 191 255 
-15.88201 41.69994 10.66938 204 200 164 255 
-15.63572 41.95908 10.09209 197 196 190 255 
-15.59881 40.87966 11.24871 210 203 191 255 
-16.30841 41.28098 11.62989 204 199 171 255 
-44.67865 40.94734 12.23397 255 255 255 255 
-16.66373 40.93605 12.41677 204 199 171 255 
-17.4297 41.30333 12.77266 201 202 170 255 
-17.06501 41.6823 12.01108 203 200 160 255 
-44.47519 41.35945 12.89566 244 247 243 255 
-17.79437 40.92436 13.51509 207 204 182 255 
-18.53091 41.28688 13.89442 202 203 175 255 
-18.13632 41.67061 13.12853 204 201 173 255 
-43.89443 41.34376 14.07704 254 255 254 255 
-43.5523 40.92119 14.4954 255 255 255 255 
-18.92549 40.90316 14.60241 196 184 164 255 
-19.67164 41.2671 14.99078 199 197 179 255 
-19.27151 41.64942 14.27376 198 198 187 255 
-43.30755 41.34376 15.15798 255 255 255 255 
-43.7107 41.66745 14.81426 255 255 255 255 
-20.07178 40.88477 15.69666 183 172 154 255 
-20.65652 41.14819 15.92772 209 198 177 255 
-20.65652 41.70788 15.44481 204 195 189 255 
-21.63101 41.56092 16.35748 214 187 179 255 
-21.22968 41.96455 15.66297 203 194 189 255 
-42.67407 41.51565 16.16313 248 249 245 255 
-42.21165 41.20768 16.48951 246 245 242 255 
-22.03234 41.15727 17.02483 209 188 162 255 
-22.85551 41.46049 17.38314 202 173 148 255 
-22.42246 41.90355 16.72563 207 186 183 255 
-41.80464 41.57349 17.2184 250 215 200 255 
-41.09269 41.193 17.63052 249 215 193 255 
-42.49652 41.95396 16.80628 246 228 216 255 
-23.28857 41.01745 18.01254 199 171 142 255 
-24.02539 41.40151 18.25933 213 195 172 255 
-23.65936 41.7637 17.74146 208 191 167 255 
-25.03918 41.5255 18.85569 205 190 179 255 
-40.68437 41.5676 18.33342 251 224 186 255 
-39.92333 41.19595 18.73739 248 212 184 255 
-41.39764 41.93927 17.92944 249 213 173 255 
-25.349 41.2241 19.18666 201 189 190 255 
-26.14613 41.5255 19.40127 205 191 196 255 
-25.70138 41.97035 19.00648 203 180 168 255 
-27.39697 41.41184 19.93544 188 179 172 255 
-38.60275 41.39999 19.83696 235 216 198 255 
-37.79618 41.0149 20.03446 238 221 210 255 
-39.60467 41.5086 19.23922 241 220 196 255 
-40.27606 41.94221 19.03822 252 237 205 255 
-27.78612 41.03469 20.16288 177 172 164 255 
-28.49072 41.41184 20.24159 157 166 188 255 
-28.11651 41.78094 20.07695 152 164 160 255 
-29.61174 41.4179 20.47153 180 184 194 255 
-30.73115 41.4179 20.69071 214 213 211 255 
-31.85055 41.4179 20.86493 203 206 193 255 
-32.96995 41.4179 20.96237 202 208 198 255 
-34.08935 41.4179 20.97324 195 201 198 255 
-35.20876 41.4179 20.88712 128 157 182 255 
-36.32815 41.4179 20.69153 153 180 199 255 
-37.43285 41.39999 20.36929 235 227 223 255 
-38.25347 41.76118 20.24056 238 233 219 255 
11.80617 42.31348 -2.81665 223 227 229 255 
10.74046 42.54558 -2.67069 186 203 229 255 
10.30223 42.0075 -2.08461 190 205 225 255 
9.56736 42.04733 -2.04659 229 231 233 255 
9.56736 42.60703 -2.54855 224 231 231 255 
8.44796 42.09754 -2.01003 236 236 233 255 
8.44796 42.65725 -2.45832 229 233 229 255 
7.32855 42.16149 -1.97223 236 236 233 255 
7.32855 42.72119 -2.3798 236 236 233 255 
6.20915 42.23732 -1.93357 235 235 232 255 
6.20915 42.79702 -2.30476 231 232 228 255 
5.08975 42.32865 -1.891 233 232 225 255 
5.08975 42.88835 -2.24066 232 232 228 255 
3.97035 42.45051 -1.83029 231 232 227 255 
3.97035 43.01021 -2.16842 231 232 227 255 
2.89995 42.64162 -1.82553 229 231 216 255 
3.30575 43.0843 -2.12629 231 234 225 255 
1.73154 42.53731 -1.66161 213 206 189 255 
0.61214 42.53731 -1.53479 217 210 204 255 
-0.45647 42.46455 -1.31814 217 220 228 255 
-0.79574 42.04289 -0.96001 196 209 221 255 
-1.62667 42.17585 -0.85928 202 210 221 255 
-1.62667 42.73555 -1.26843 222 226 230 255 
-2.74607 42.38606 -0.69182 229 232 234 255 
-2.74607 42.94577 -1.11941 225 229 227 255 
-3.83326 42.55062 -0.4568 222 221 214 255 
-3.37186 43.06944 -1.02815 215 210 199 255 
-4.29468 42.03177 0.15311 224 227 216 255 
-4.98488 42.15217 0.27677 223 225 211 255 
-4.98488 42.71187 -0.26768 221 216 203 255 
-6.10428 42.34859 0.50865 218 220 217 255 
-6.10428 42.90829 -0.11764 216 215 207 255 
-7.13854 42.59332 0.70466 138 170 154 255 
-6.83853 43.03992 0.02319 195 216 206 255 
-7.43856 42.1467 1.44809 145 169 149 255 
-8.34647 42.32371 1.80048 116 169 134 255 
-8.34309 42.90212 0.94715 81 178 139 255 
-9.45668 42.82821 1.74364 129 199 155 255 
-9.07968 43.04119 1.12718 129 199 155 255 
-8.72185 42.06804 2.47733 202 213 185 255 
-9.50688 42.22666 2.86284 205 214 188 255 
-10.61714 42.78665 2.86464 222 212 163 255 
-10.2675 42.98755 2.09472 196 207 173 255 
-9.90959 42.03861 3.56609 216 215 148 255 
-10.61206 42.22526 3.96091 217 218 145 255 
-11.70201 42.8055 4.00384 215 214 197 255 
-11.32936 43.00138 3.22168 210 214 164 255 
-11.0053 42.05187 4.69731 217 218 145 255 
-11.71267 42.24714 5.08447 213 213 210 255 
-12.79282 42.86722 5.20574 156 198 196 255 
-12.40111 43.00567 4.37899 210 210 193 255 
-12.09338 42.07078 5.81817 213 213 210 255 
-12.83484 42.33348 6.2018 150 166 186 255 
-13.60998 42.91225 6.22122 115 170 173 255 
-13.39632 43.08533 5.6408 172 193 178 255 
-13.2174 42.11608 6.9814 142 157 178 255 
-13.9695 42.51806 7.30325 135 161 182 255 
-14.26839 42.17378 8.13915 156 167 176 255 
-15.00717 42.60731 8.53503 156 169 168 255 
-14.67206 42.92006 7.62512 132 173 172 255 
-15.34228 42.29458 9.35073 182 194 194 255 
-16.02776 42.69346 9.72913 201 198 182 255 
-15.67352 43.04083 8.93091 195 202 180 255 
-16.44171 42.28456 10.66938 208 195 171 255 
-16.99253 42.84426 10.66938 204 200 164 255 
-16.74389 43.09235 10.10753 201 204 166 255 
-16.69935 42.01837 11.26972 207 196 160 255 
-17.44158 42.39713 11.64237 207 196 161 255 
-17.81128 42.0296 12.38719 205 199 165 255 
-18.49528 42.42552 12.79397 207 200 167 255 
-18.10794 42.77587 12.01503 201 198 161 255 
-44.6144 42.11145 13.2678 246 250 246 255 
-18.8826 42.07516 13.5324 200 203 185 255 
-19.632 42.44543 13.91304 185 188 171 255 
-19.24621 42.82141 13.20076 194 200 177 255 
-44.47435 42.50567 14.08653 255 255 255 255 
-20.01778 42.06946 14.6378 197 197 189 255 
-20.7477 42.48049 14.83868 190 190 177 255 
-20.43534 42.81572 14.29369 171 186 165 255 
-21.67205 42.64904 15.45997 205 199 186 255 
-43.95199 42.49347 15.15798 255 255 255 255 
-43.50002 42.09109 15.5556 255 255 255 255 
-21.97595 42.35037 15.98427 202 198 183 255 
-22.75238 42.6703 16.34374 205 198 175 255 
-22.33603 43.09665 15.67326 195 201 179 255 
-43.27815 42.49347 16.29762 255 234 224 255 
-43.74381 42.83736 15.97229 255 255 255 255 
-23.16873 42.24396 17.00009 194 175 157 255 
-23.98026 42.56859 17.37519 209 201 177 255 
-23.55488 42.99024 16.70323 205 206 192 255 
-42.71511 42.53731 17.07165 241 224 209 255 
-42.22192 42.53731 17.62767 247 219 186 255 
-24.40564 42.14693 18.02799 209 193 170 255 
-25.15062 42.52696 18.26452 189 175 160 255 
-24.78845 42.89321 17.75028 208 200 189 255 
-26.14613 42.61631 18.83744 202 179 147 255 
-41.60571 42.64577 18.36154 250 229 197 255 
-41.02233 42.34497 18.6708 252 234 198 255 
-26.44766 42.29585 19.17793 205 176 155 255 
-27.29189 42.61631 19.41414 206 194 160 255 
-26.86472 43.04211 18.98284 205 195 175 255 
-28.49072 42.51868 19.9431 145 160 199 255 
-39.71525 42.49478 19.83357 241 238 227 255 
-38.99974 42.09328 20.06199 234 227 205 255 
-40.71182 42.64577 19.20541 248 248 238 255 
-41.37022 43.09122 19.01507 255 255 249 255 
-28.86277 42.13313 20.16839 143 158 197 255 
-29.61075 42.51868 20.27267 131 155 197 255 
-29.23695 42.87938 20.05954 136 160 202 255 
-30.73115 42.53731 20.57718 213 212 212 255 
-31.85055 42.53731 20.83351 177 173 188 255 
-32.96995 42.53731 21.01147 137 152 171 255 
-34.08935 42.53731 21.10274 203 204 204 255 
-35.20876 42.53731 21.10465 187 193 191 255 
-36.32815 42.53731 21.01752 113 154 177 255 
-37.44756 42.53731 20.823 195 207 203 255 
-38.60275 42.49478 20.43165 237 237 235 255 
-39.36138 42.83955 20.25545 237 240 236 255 
10.75803 43.30661 -3.68465 173 198 224 255 
9.4935 43.75016 -3.88196 224 231 231 255 
9.81741 44.09792 -4.53463 182 201 226 255 
10.43241 43.11629 -3.18435 179 198 221 255 
9.56736 43.16275 -3.10457 224 231 231 255 
8.44796 43.2451 -3.01434 229 233 229 255 
8.44796 43.8048 -3.68698 223 229 226 255 
7.32855 43.34757 -2.93583 218 220 219 255 
7.32855 43.90728 -3.54531 218 220 219 255 
6.20915 43.45808 -2.86078 229 230 227 255 
6.20915 44.01778 -3.40559 204 204 206 255 
4.97825 43.71064 -2.88346 231 232 229 255 
5.27706 44.11972 -3.30926 232 233 229 255 
3.97035 43.65671 -2.65814 230 231 226 255 
2.89995 43.559 -2.44255 235 236 224 255 
2.55948 43.12073 -2.10205 227 226 212 255 
1.73154 43.15574 -2.07748 0 0 0 255 
1.73154 43.71544 -2.47234 0 0 0 255 
0.61214 43.23189 -2.02322 229 227 226 255 
0.61214 43.7916 -2.41476 233 235 237 255 
-0.50727 43.34795 -1.93888 230 231 233 255 
-0.50727 43.90765 -2.33413 232 228 232 255 
-1.62667 43.49925 -1.82445 227 225 224 255 
-1.62667 44.05894 -2.22965 227 211 204 255 
-2.72002 43.74099 -1.73271 230 225 216 255 
-2.32952 44.1703 -2.15243 222 204 193 255 
-3.79319 43.60577 -1.35207 205 186 181 255 
-4.11813 43.19866 -0.91821 204 199 189 255 
-4.98488 43.29721 -0.82369 186 174 158 255 
-4.98488 43.85691 -1.33698 209 161 151 255 
-6.10428 43.4209 -0.67367 211 205 199 255 
-6.10428 43.9806 -1.25414 220 187 177 255 
-7.21648 43.5368 -0.38891 195 214 206 255 
-7.22368 44.13048 -1.10914 211 222 213 255 
-8.25024 43.94885 -0.48791 135 182 170 255 
-7.8152 44.20841 -1.01791 180 215 200 255 
-7.58479 43.19832 0.20567 114 194 163 255 
-8.34309 43.32825 0.39113 86 165 134 255 
-9.45668 43.47398 0.71831 139 173 127 255 
-9.46249 44.05047 -0.1706 112 173 146 255 
-10.57098 43.98062 0.65604 163 186 162 255 
-10.19057 44.16127 -0.01568 132 193 166 255 
-9.82595 43.20026 1.35335 190 200 167 255 
-10.61714 43.38824 1.74364 185 199 160 255 
-11.70401 43.94736 1.76927 209 220 198 255 
-11.33269 44.14845 1.02341 209 220 198 255 
-11.01378 43.17396 2.48031 210 214 164 255 
-11.70201 43.38299 2.86464 212 218 176 255 
-12.60896 43.95648 2.88509 203 210 194 255 
-12.38162 44.13214 2.13742 203 215 192 255 
-12.07562 43.20785 3.63763 209 213 173 255 
-12.87585 43.6221 3.93413 203 210 194 255 
-13.14738 43.29007 4.89944 172 193 178 255 
-13.86571 43.7383 5.25315 186 206 196 255 
-13.58885 44.03635 4.23065 186 206 196 255 
-14.16968 43.41056 6.22122 134 174 182 255 
-14.70718 43.97026 6.22122 186 203 191 255 
-14.52652 44.18652 5.60686 195 210 194 255 
-14.41686 43.17186 6.88376 134 174 182 255 
-15.08396 43.62724 7.30291 167 201 193 255 
-15.41834 43.33632 8.18954 167 201 193 255 
-16.08727 43.7388 8.54696 196 201 187 255 
-15.75474 44.0826 7.72208 197 202 188 255 
-16.41978 43.395 9.36617 195 203 174 255 
-16.99217 43.72357 9.66504 197 200 164 255 
-16.81195 44.14128 8.90438 197 199 166 255 
-17.59589 43.57347 10.58312 201 198 164 255 
-17.81816 43.14484 11.27367 204 198 159 255 
-18.46965 43.56325 11.70158 200 197 164 255 
-18.08512 43.89111 10.8963 198 196 161 255 
-18.85421 43.2354 12.4594 191 193 170 255 
-19.60954 43.59621 12.82814 159 189 159 255 
-19.2266 43.98166 12.12952 198 196 174 255 
-19.99249 43.21076 13.55232 134 150 124 255 
-20.78008 43.54205 13.90785 128 151 121 255 
-20.37853 43.95705 13.19689 103 145 99 255 
-44.68411 43.16217 14.51123 253 255 255 255 
-21.18162 43.12705 14.58709 182 196 171 255 
-21.85899 43.56281 14.82731 162 183 155 255 
-21.54124 43.87333 14.26339 102 148 96 255 
-22.78363 43.74184 15.45694 152 199 149 255 
-44.5427 43.58386 15.20191 255 255 255 255 
-23.0823 43.42546 15.96187 188 208 182 255 
-23.89909 43.76576 16.3303 201 214 196 255 
-23.49703 44.17173 15.6365 182 207 187 255 
-43.97193 43.60164 16.29762 255 255 255 255 
-43.52649 43.19181 16.71365 255 255 255 255 
-24.30115 43.35978 17.00892 212 207 197 255 
-25.1176 43.6726 17.3621 205 200 190 255 
-24.70048 44.10606 16.69873 201 202 189 255 
-43.13121 43.52251 17.44997 255 255 255 255 
-42.47524 43.10694 17.88768 255 255 254 255 
-43.73285 43.93808 17.01228 255 255 255 255 
-25.53472 43.23915 18.01129 199 182 159 255 
-26.28366 43.63007 18.24616 199 185 164 255 
-25.93062 43.98543 17.71529 204 196 184 255 
-27.29189 43.76494 18.84343 204 197 177 255 
-42.19731 43.55072 18.51207 255 255 249 255 
-42.73591 43.85321 18.18034 251 253 245 255 
-27.61099 43.46395 19.18963 204 197 180 255 
-28.38451 43.76494 19.39836 202 197 194 255 
-27.93949 44.21022 19.00671 209 194 194 255 
-29.61075 43.67111 19.92801 193 183 194 255 
-40.78565 43.63941 19.77776 216 225 218 255 
-40.10763 43.25476 20.04334 235 238 234 255 
-41.57293 43.65671 19.19453 247 250 242 255 
-29.98324 43.30758 20.19076 200 194 196 255 
-30.70248 43.67111 20.32355 223 215 211 255 
-30.31024 44.05386 20.07236 213 205 204 255 
-31.85055 43.65671 20.68399 174 178 189 255 
-32.96995 43.65671 20.9631 115 146 178 255 
-34.08935 43.65671 21.14098 202 198 199 255 
-35.17127 43.68178 21.21002 206 203 202 255 
-36.32815 43.5316 21.18613 194 197 198 255 
-37.35459 43.75543 21.12392 216 211 208 255 
-38.56697 43.65671 20.86619 223 223 218 255 
-39.71525 43.63941 20.41644 191 210 220 255 
-40.39912 44.00101 20.22433 178 197 207 255 
-36.32815 44.0913 21.24454 204 201 197 255 
-35.51939 44.0716 21.24527 206 203 202 255 
-36.91948 44.19439 21.23663 202 198 192 255 
10.09585 45.31248 -9.34735 240 240 240 255 
10.10953 45.32332 -9.99154 245 245 245 255 
9.95016 45.22023 -8.23532 222 229 233 255 
9.70267 45.11446 -7.12328 203 218 238 255 
10.6323 44.46437 -6.01962 186 203 229 255 
9.46685 44.93648 -6.11016 224 231 231 255 
10.22285 44.27975 -5.27599 179 198 221 255 
9.4935 44.36984 -4.90285 224 231 231 255 
8.44796 44.66174 -4.89919 223 229 226 255 
8.44796 45.15394 -5.77995 223 229 226 255 
7.34579 45.00735 -4.95005 184 202 218 255 
7.73041 45.28944 -5.53799 190 208 224 255 
9.07113 44.23175 -4.31585 233 235 233 255 
8.44796 44.28392 -4.243 223 229 226 255 
7.32855 44.40034 -4.10134 188 199 212 255 
6.20915 44.54251 -3.96161 204 204 206 255 
6.20915 45.10221 -4.63244 203 203 210 255 
4.92216 44.72176 -3.81887 228 230 224 255 
5.31351 45.22692 -4.45876 225 226 224 255 
4.53078 44.21658 -3.23096 224 225 219 255 
3.97035 44.29231 -3.16484 222 220 215 255 
3.97035 44.85201 -3.6696 222 220 215 255 
2.85094 44.40949 -3.07405 231 231 228 255 
2.85094 44.96919 -3.52693 225 217 218 255 
1.73154 44.48944 -3.02836 0 0 0 255 
1.73154 45.04914 -3.44418 0 0 0 255 
0.61214 44.58459 -2.97078 230 233 237 255 
0.61214 45.1443 -3.36735 227 232 236 255 
-0.50727 44.69459 -2.89015 231 230 230 255 
-0.50727 45.2543 -3.28875 230 231 234 255 
-1.56431 44.87675 -2.84442 231 210 194 255 
-1.1496 45.31695 -3.24464 233 222 208 255 
-2.72002 44.70352 -2.48238 226 200 178 255 
-3.0758 44.28201 -2.06666 227 208 197 255 
-3.86547 44.38146 -1.97853 216 188 169 255 
-3.86547 44.94116 -2.45485 229 210 203 255 
-4.98488 44.46863 -1.893 206 147 141 255 
-4.98488 45.02833 -2.40026 200 169 168 255 
-6.10428 44.51824 -1.81016 215 155 166 255 
-6.10428 45.07793 -2.37425 227 204 202 255 
-7.22368 44.63876 -1.66516 216 224 221 255 
-7.22368 45.19846 -2.26772 224 218 214 255 
-8.26938 44.82497 -1.54661 187 194 191 255 
-7.97728 45.30517 -2.15632 218 212 207 255 
-10.27394 45.20812 -1.56307 184 192 178 255 
-9.57039 45.08678 -1.64801 188 194 191 255 
-10.01546 45.33551 -2.11957 213 201 195 255 
-10.02294 45.33551 -2.11957 213 201 195 255 
-8.56148 44.34474 -0.88316 137 195 172 255 
-9.46249 44.46506 -0.72663 129 188 160 255 
-10.64697 44.74143 -0.50087 148 198 173 255 
-10.93683 44.31698 0.28205 181 205 180 255 
-11.70401 44.52199 0.65604 184 206 189 255 
-11.70129 45.08295 -0.26588 194 196 184 255 
-12.59439 45.08266 0.66102 202 198 186 255 
-12.36085 45.27124 -0.03982 202 198 186 255 
-12.07897 44.31661 1.39606 207 218 195 255 
-12.86678 44.75321 1.70226 193 204 188 255 
-13.16867 44.40581 2.88509 203 214 192 255 
-13.74044 44.96551 2.88509 185 202 182 255 
-13.53035 45.1898 2.00847 188 193 172 255 
-13.35061 44.24181 3.48929 203 214 192 255 
-14.02282 44.68871 3.8777 179 197 176 255 
-14.33511 44.38936 4.8655 196 212 192 255 
-14.80765 44.76795 5.18538 173 196 178 255 
-14.64904 45.13564 4.26613 166 187 157 255 
-15.31575 44.76272 6.1578 173 196 178 255 
-15.49588 44.38066 6.98072 198 206 195 255 
-16.16147 44.82717 7.39567 195 210 190 255 
-15.82194 45.12692 6.48621 188 203 183 255 
-16.50101 44.5274 8.16302 194 199 173 255 
-16.9894 44.85076 8.49834 190 200 173 255 
-16.77983 45.27367 7.81064 191 204 173 255 
-17.61883 44.69093 9.50316 195 196 164 255 
-17.82885 44.26102 10.15493 198 196 160 255 
-18.47008 44.69097 10.56823 194 195 172 255 
-18.10879 45.00728 9.8377 196 199 172 255 
-18.83137 44.37465 11.38815 198 196 174 255 
-19.61497 44.72781 11.72362 181 201 181 255 
-19.25706 45.12093 10.98153 190 199 171 255 
-19.97288 44.33472 12.45554 157 179 161 255 
-20.73489 44.69184 12.82644 121 154 139 255 
-20.34498 45.08097 12.05908 173 191 162 255 
-21.12481 44.30271 13.52204 84 138 101 255 
-21.89781 44.65944 13.89404 101 147 134 255 
-21.50811 45.04899 13.19735 164 190 155 255 
-22.28749 44.2699 14.60855 86 152 118 255 
-23.00633 44.69626 14.79055 117 174 147 255 
-22.70721 45.01618 14.26603 117 174 147 255 
-23.92799 44.84545 15.39147 175 214 196 255 
-24.2433 44.51854 15.95737 205 206 197 255 
-25.05356 44.84232 16.29935 206 202 195 255 
-24.66035 45.26482 15.61007 204 200 193 255 
-44.5189 44.51238 16.22959 251 255 251 255 
-25.44676 44.41983 16.97393 205 202 191 255 
-26.26423 44.77987 17.37072 205 201 189 255 
-25.85157 45.16608 16.64134 206 202 196 255 
-44.08763 44.86703 17.28667 216 242 229 255 
-43.48219 44.42612 17.75365 238 248 240 255 
-26.67688 44.39365 18.02103 206 202 189 255 
-27.37312 44.77051 18.27112 206 201 198 255 
-27.0001 45.1399 17.7675 206 201 196 255 
-28.38451 44.84674 18.84329 202 193 193 255 
-43.02561 44.80524 18.473 252 255 251 255 
-42.38362 44.43807 18.9217 251 255 250 255 
-43.69614 45.17238 18.0243 229 245 231 255 
-28.68575 44.52067 19.16905 199 187 174 255 
-29.54574 44.84674 19.38204 208 194 181 255 
-29.12862 45.26695 18.97465 203 192 181 255 
-30.70248 44.79471 19.91904 203 200 186 255 
-41.97637 44.79718 19.3985 220 230 248 255 
-41.14679 44.77612 19.99723 166 199 239 255 
-42.56905 45.18435 19.08234 255 255 251 255 
-31.0565 44.43399 20.21025 197 195 181 255 
-31.81832 44.79471 20.37612 178 182 172 255 
-31.4237 45.18025 20.06403 184 188 177 255 
-32.96995 44.77612 20.79095 128 141 172 255 
-34.08935 44.77612 21.05188 190 195 190 255 
-34.99084 44.77612 21.19027 207 206 199 255 
-38.56697 44.77612 21.06097 210 210 208 255 
-37.56952 44.77612 21.199 183 185 186 255 
-39.68637 44.77612 20.7462 201 210 209 255 
-40.58708 44.77612 20.32822 161 193 235 255 
-35.55054 44.77612 21.24695 206 206 197 255 
-36.32815 44.77612 21.25548 190 194 190 255 
-37.00981 44.77612 21.24228 190 192 191 255 
13.82858 45.89552 -20.86432 237 239 244 255 
9.96697 46.29915 -13.79551 245 243 239 255 
10.33646 45.61637 -12.68347 245 243 239 255 
9.83441 46.17607 -12.68347 243 243 242 255 
10.24327 45.48823 -11.57142 242 242 242 255 
9.70488 46.04793 -11.57142 246 246 246 255 
10.16889 45.39161 -10.7329 245 245 246 255 
9.58321 45.91287 -10.37459 247 247 245 255 
9.53615 45.85003 -9.34735 237 239 239 255 
8.91885 46.40973 -9.34735 240 242 243 255 
8.97822 46.43414 -10.01628 243 246 244 255 
9.39047 45.73067 -8.23532 229 231 233 255 
8.50651 46.31687 -8.13647 233 235 233 255 
9.14297 45.49182 -7.12328 232 239 239 255 
8.44796 45.89333 -7.12328 227 232 231 255 
7.4292 46.31715 -7.02995 184 202 218 255 
7.86943 46.44442 -7.69989 224 229 231 255 
9.02671 45.35087 -6.54678 232 239 239 255 
8.44796 45.47689 -6.33597 223 229 226 255 
