ply
format ascii 1.0
comment VCGLIB generated
element vertex 1059
property float x
property float y
property float z
property uchar red
property uchar green
property uchar blue
property uchar alpha
element face 0
property list uchar int vertex_indices
end_header
-10.76751 -50.2604 -4.53273 202 188 150 255 
-12.52816 -50.5809 -4.20789 158 148 154 255 
-13.65598 -50.72841 -4.08729 222 205 161 255 
-14.7181 -50.80447 -3.98317 241 209 180 255 
-15.91162 -50.85713 -3.87738 189 168 171 255 
-17.03944 -50.90431 -3.83443 212 183 158 255 
-18.16726 -50.92422 -3.81814 255 237 197 255 
-19.29508 -50.92484 -3.82237 255 238 209 255 
-20.4229 -50.91849 -3.83927 255 244 216 255 
-21.55072 -50.93006 -3.85519 255 230 198 255 
-22.67854 -50.97056 -3.84782 252 217 171 255 
-23.80636 -51.00988 -3.81201 255 206 131 255 
-24.93418 -51.0294 -3.7597 255 219 89 255 
-26.062 -51.05195 -3.69563 255 225 175 255 
-27.18982 -51.11778 -3.61126 255 217 175 255 
-28.31764 -51.19488 -3.54469 255 173 90 255 
-29.44545 -51.19428 -3.54138 255 213 144 255 
-30.57327 -51.1124 -3.58797 255 214 166 255 
-31.7011 -50.95187 -3.67917 255 226 186 255 
-32.75918 -50.70292 -3.80636 255 180 117 255 
-33.9146 -50.80052 -4.27921 255 190 147 255 
-34.80645 -50.42784 -4.42824 255 224 198 255 
-15.91162 -50.29322 -3.39356 247 220 191 255 
-15.20522 -50.25137 -3.42683 251 223 183 255 
-17.03944 -50.3404 -3.35602 255 241 220 255 
-18.16726 -50.36029 -3.33717 255 224 188 255 
-19.29508 -50.36093 -3.33129 255 207 164 255 
-20.4229 -50.35459 -3.33438 253 218 195 255 
-21.55072 -50.36614 -3.32313 255 240 195 255 
-22.67854 -50.40664 -3.28223 255 231 113 255 
-23.80636 -50.44596 -3.2456 255 246 52 255 
-24.93418 -50.4655 -3.24017 255 246 55 255 
-26.062 -50.48803 -3.2404 255 233 183 255 
-27.18982 -50.55388 -3.2131 255 226 166 255 
-28.31764 -50.63096 -3.17794 255 206 113 255 
-29.44545 -50.63038 -3.18377 255 220 200 255 
-30.57327 -50.5485 -3.2383 255 222 188 255 
-31.7011 -50.38796 -3.34319 255 228 202 255 
-32.33675 -50.26515 -3.42089 255 223 197 255 
14.23155 -50.02746 -21.9619 8 8 7 255 
13.65831 -49.46356 -21.9619 10 12 12 255 
14.40075 -49.90665 -20.83947 142 133 103 255 
13.8132 -49.34274 -20.83947 114 91 82 255 
14.31434 -50.00335 -19.71704 137 157 74 255 
13.7491 -49.43945 -19.71704 190 174 139 255 
14.5531 -50.01329 -18.48305 216 193 159 255 
15.1041 -50.23144 -18.03454 219 201 156 255 
13.7364 -49.39501 -18.59461 201 180 162 255 
15.29335 -50.13505 -17.47217 220 195 158 255 
14.4469 -49.5639 -17.39304 225 194 167 255 
13.82819 -49.24761 -17.71442 211 190 155 255 
15.70608 -49.92515 -16.36169 204 183 146 255 
16.35735 -50.15274 -15.99551 137 160 85 255 
14.77778 -49.34386 -16.34974 224 204 152 255 
16.75803 -49.9537 -15.17313 152 174 90 255 
17.45416 -50.16345 -14.76287 195 206 135 255 
15.7205 -49.36153 -15.26819 224 204 150 255 
15.01153 -49.1765 -15.66959 226 206 155 255 
17.81375 -49.74473 -14.01671 227 222 157 255 
18.75145 -50.0779 -13.69782 244 233 189 255 
16.79515 -49.37953 -14.36319 227 214 159 255 
16.13189 -49.16376 -14.59276 230 208 154 255 
24.68988 -49.89989 -12.71011 234 229 193 255 
23.56206 -49.95093 -12.6606 234 234 181 255 
22.43425 -49.97386 -12.63178 216 226 158 255 
21.30643 -49.9405 -12.65684 205 222 157 255 
20.1786 -49.78912 -12.79539 175 205 139 255 
19.17512 -49.59548 -13.04275 243 237 190 255 
18.17333 -49.32602 -13.34744 248 234 202 255 
24.68988 -49.33599 -12.23965 236 231 209 255 
23.56206 -49.38703 -12.1951 233 230 203 255 
22.43425 -49.40995 -12.18635 221 228 189 255 
21.30643 -49.37659 -12.22268 154 206 137 255 
20.1786 -49.22521 -12.33457 160 205 131 255 
19.5988 -49.11305 -12.41468 201 223 161 255 
-40.58591 -49.66784 -10.73759 242 216 193 255 
-40.55099 -49.66784 -9.61516 226 215 198 255 
-40.33847 -49.61598 -8.58596 197 180 166 255 
-39.96545 -49.95732 -8.27397 198 182 186 255 
-39.56783 -49.62134 -7.39608 255 252 238 255 
-38.87115 -50.03724 -6.96038 226 207 185 255 
-40.22654 -49.20545 -7.83177 255 249 246 255 
-38.45787 -49.65225 -6.25247 201 188 220 255 
-37.68895 -50.01913 -5.84987 156 162 190 255 
-39.1702 -49.28535 -6.65508 245 228 212 255 
-36.21237 -49.9302 -4.79409 255 230 203 255 
-35.55833 -50.17575 -4.6084 255 227 208 255 
-37.24964 -49.57648 -5.19383 222 205 198 255 
-38.04459 -49.26726 -5.56114 240 225 224 255 
-10.39143 -49.61422 -4.0381 232 191 155 255 
-11.40034 -49.80155 -3.83897 187 158 155 255 
-12.52816 -49.98564 -3.64668 168 153 163 255 
-13.65598 -50.12569 -3.52607 216 200 174 255 
-14.45335 -50.19787 -3.46791 246 221 169 255 
-33.95673 -49.90443 -3.68588 255 225 220 255 
-33.08863 -50.10368 -3.52908 255 220 193 255 
-35.10291 -49.67362 -3.9902 249 191 160 255 
-36.21237 -49.3663 -4.3478 255 228 203 255 
-36.8103 -49.13383 -4.53943 255 244 224 255 
-11.40034 -49.23764 -3.33637 238 203 168 255 
-10.76723 -49.12689 -3.42042 239 207 166 255 
-12.52816 -49.42173 -3.21251 185 187 176 255 
-13.65598 -49.56177 -3.12436 222 203 181 255 
-14.81109 -49.76028 -3.11526 255 238 185 255 
-15.91162 -49.66784 -2.911 250 230 203 255 
-17.03944 -49.66784 -2.81302 251 215 175 255 
-18.07865 -49.56137 -2.68525 255 233 189 255 
-19.29508 -49.69131 -2.77007 255 224 120 255 
-20.4229 -49.69372 -2.77316 255 229 122 255 
-21.55072 -49.69727 -2.7619 255 224 170 255 
-22.67854 -49.72755 -2.72102 255 253 184 255 
-23.80636 -49.76064 -2.68439 255 254 110 255 
-24.93418 -49.76189 -2.67896 255 253 71 255 
-26.062 -49.74795 -2.67918 255 242 105 255 
-27.18982 -49.76048 -2.65189 255 244 231 255 
-28.31764 -49.78495 -2.61673 255 235 190 255 
-29.44545 -49.77449 -2.62255 206 210 171 255 
-30.63492 -49.59019 -2.61253 162 179 132 255 
-31.7011 -49.66784 -2.84986 246 230 187 255 
-32.75918 -49.70378 -3.14092 255 239 212 255 
-33.95673 -49.34052 -3.26188 255 231 203 255 
-34.64751 -49.17151 -3.38719 255 171 129 255 
-19.29508 -49.1274 -2.30136 255 239 91 255 
-18.39552 -49.11444 -2.31127 255 230 190 255 
-20.4229 -49.1298 -2.29906 255 242 83 255 
-21.55072 -49.13336 -2.29577 255 236 189 255 
-22.67854 -49.16364 -2.27474 255 253 224 255 
-23.80636 -49.19672 -2.25374 255 249 215 255 
-24.93418 -49.19799 -2.25388 255 242 187 255 
-26.062 -49.18404 -2.26262 255 249 213 255 
-27.18982 -49.19657 -2.25585 255 225 196 255 
-28.31764 -49.22103 -2.24433 255 249 228 255 
-29.44545 -49.21057 -2.25116 163 177 118 255 
-30.30008 -49.16247 -2.28045 164 181 136 255 
13.4359 -48.54003 -20.83947 64 75 55 255 
13.1896 -48.43737 -19.61442 163 160 125 255 
13.17249 -48.60892 -18.59461 182 163 144 255 
12.83172 -48.04501 -18.59461 173 163 135 255 
12.84342 -47.99299 -19.17185 164 160 134 255 
13.37231 -48.56314 -17.41501 207 203 175 255 
14.00923 -49.07518 -16.96614 216 203 173 255 
12.83073 -48.05109 -17.86387 157 160 123 255 
14.21387 -48.88146 -16.34974 224 209 165 255 
13.684 -48.31754 -16.34974 207 209 158 255 
14.58567 -48.4996 -15.28398 221 203 158 255 
15.38001 -48.91503 -14.9213 228 204 151 255 
13.8941 -48.08417 -15.64665 225 224 175 255 
16.79515 -48.8524 -13.80198 239 225 175 255 
17.42145 -49.05978 -13.58728 245 232 199 255 
15.74609 -48.48793 -14.15854 171 195 124 255 
14.9117 -48.16316 -14.47262 166 184 111 255 
17.84884 -48.59168 -12.9283 245 232 211 255 
18.84693 -48.87545 -12.59916 245 242 205 255 
16.79515 -48.2885 -13.27359 207 227 167 255 
16.11217 -48.06084 -13.46979 155 193 114 255 
25.8177 -48.54003 -11.77468 231 239 205 255 
24.75245 -48.45487 -11.60726 194 206 146 255 
23.56206 -48.62404 -11.63389 231 229 198 255 
22.43425 -48.61207 -11.62514 175 208 142 255 
21.33849 -48.44529 -11.60875 162 205 125 255 
20.1786 -48.54003 -11.89132 168 212 139 255 
19.15403 -48.51571 -12.20508 242 239 201 255 
18.27624 -48.12357 -12.31742 245 232 200 255 
23.56206 -48.06014 -11.24402 237 235 183 255 
24.41822 -48.02217 -11.26911 187 216 145 255 
22.43425 -48.04816 -11.25208 226 230 188 255 
21.7358 -48.00619 -11.27985 166 195 134 255 
-40.92456 -48.54003 -10.73759 240 219 199 255 
-41.08707 -48.46746 -9.60966 240 219 188 255 
-40.95124 -48.46746 -8.53347 253 221 196 255 
-41.30437 -48.04314 -8.93478 239 206 177 255 
-41.30437 -48.04314 -9.23184 234 203 164 255 
-40.40426 -48.48083 -7.4227 225 210 211 255 
-39.92206 -48.81731 -7.08349 239 225 218 255 
-39.55959 -48.47452 -6.30299 165 167 163 255 
-38.79646 -48.8836 -5.90679 232 224 229 255 
-40.21817 -48.06542 -6.6992 157 146 179 255 
-38.42564 -48.48509 -5.15809 206 187 179 255 
-37.56219 -48.83845 -4.81286 255 249 241 255 
-39.19709 -48.13172 -5.50332 151 142 174 255 
-10.01535 -49.0035 -3.54347 236 192 169 255 
-36.21237 -48.72723 -3.78659 255 224 213 255 
-35.39939 -48.97684 -3.55216 255 169 124 255 
-37.1698 -48.40766 -4.12029 246 227 212 255 
-38.0548 -48.08658 -4.44942 172 161 191 255 
-9.1447 -48.29288 -3.14893 156 138 166 255 
-8.26575 -48.12296 -3.30554 159 152 169 255 
-10.34378 -48.59254 -3.07504 189 180 150 255 
-11.47226 -48.43438 -2.70709 248 215 184 255 
-12.52816 -48.61347 -2.65129 255 238 210 255 
-13.65598 -48.72893 -2.56314 255 246 189 255 
-14.7838 -48.86323 -2.48363 255 238 197 255 
-15.91162 -48.99845 -2.39801 255 233 168 255 
-17.03944 -49.08061 -2.33757 255 227 163 255 
-17.64365 -49.10264 -2.32037 255 238 196 255 
-31.7011 -49.02183 -2.38724 209 205 149 255 
-31.05196 -49.089 -2.331 169 187 116 255 
-32.82891 -48.86353 -2.52016 254 237 235 255 
-33.95673 -48.65526 -2.70067 255 225 199 255 
-34.96414 -48.47831 -2.92828 255 162 99 255 
-36.21237 -48.16333 -3.27311 255 171 127 255 
-36.77742 -47.97689 -3.44102 253 224 204 255 
-12.52816 -48.04957 -2.26916 255 239 197 255 
-11.89614 -47.98803 -2.31107 245 234 204 255 
-13.65598 -48.16503 -2.19258 255 237 179 255 
-14.7838 -48.29932 -2.10441 255 240 192 255 
-15.91162 -48.43454 -2.00798 255 230 140 255 
-17.03944 -48.51669 -1.94085 255 236 102 255 
-18.07865 -48.65203 -1.98876 255 229 199 255 
-19.29508 -48.54003 -1.87355 255 237 169 255 
-20.4229 -48.54003 -1.85421 255 249 54 255 
-21.55072 -48.54003 -1.8439 255 251 93 255 
-22.67854 -48.54003 -1.82333 255 231 199 255 
-23.80636 -48.54003 -1.8043 255 231 178 255 
-24.93418 -48.54003 -1.80599 255 240 135 255 
-26.062 -48.54003 -1.81727 255 237 143 255 
-27.18982 -48.54003 -1.80972 255 238 162 255 
-28.31764 -48.54003 -1.79687 255 231 188 255 
-29.44545 -48.54003 -1.77822 234 230 177 255 
-30.63492 -48.64384 -1.88253 240 230 200 255 
-31.7011 -48.45791 -1.85293 234 199 183 255 
-32.82891 -48.29963 -2.0167 254 214 189 255 
-33.95673 -48.09134 -2.21301 255 226 207 255 
-34.5289 -47.97979 -2.31605 255 195 135 255 
12.99022 -47.4122 -21.80948 19 21 17 255 
13.11096 -47.4122 -20.83947 71 103 39 255 
12.96852 -47.4122 -19.91094 121 118 75 255 
12.79111 -47.4122 -19.34973 168 159 139 255 
12.70615 -47.4122 -18.59461 153 159 115 255 
12.73631 -47.44029 -17.4827 106 153 95 255 
12.91641 -47.83495 -17.11558 118 155 116 255 
13.11493 -47.44029 -16.33876 143 181 79 255 
12.77527 -47.08307 -16.70556 130 162 63 255 
13.7137 -47.37166 -15.25443 226 226 174 255 
14.15982 -47.72055 -14.89836 211 214 155 255 
14.58172 -47.35536 -14.15326 161 186 119 255 
15.36029 -47.74204 -13.72433 160 188 122 255 
13.91436 -46.96867 -14.58221 228 223 178 255 
16.72031 -47.45412 -12.67557 247 229 192 255 
17.52435 -47.858 -12.50914 244 226 192 255 
15.70867 -47.38455 -13.24423 162 193 128 255 
15.00362 -46.99017 -13.45691 168 199 112 255 
25.1701 -47.96353 -11.30674 174 211 147 255 
20.1786 -47.78341 -11.41677 218 219 165 255 
20.98393 -47.91878 -11.33183 174 197 141 255 
18.97767 -47.40522 -11.5498 252 244 224 255 
17.90936 -47.45412 -12.0433 243 230 201 255 
17.04635 -47.10612 -12.24554 246 233 201 255 
25.8177 -47.33195 -11.00569 241 242 218 255 
24.75245 -47.51744 -10.98219 188 225 150 255 
23.56206 -47.4122 -10.81375 230 235 173 255 
22.43425 -47.4122 -10.82924 222 220 185 255 
21.33849 -47.49058 -11.00733 176 198 128 255 
20.1786 -47.2195 -11.06951 237 235 201 255 
19.30486 -47.02463 -11.19148 253 247 217 255 
-41.41608 -47.14279 -10.73759 228 207 187 255 
-41.26424 -47.92138 -9.98013 228 203 176 255 
-41.44826 -47.49213 -9.60966 229 195 168 255 
-41.42869 -47.43113 -8.53347 240 209 168 255 
-41.19394 -47.81968 -8.18649 250 216 187 255 
-41.02877 -47.43113 -7.28738 244 213 188 255 
-41.37765 -47.06779 -7.60625 240 208 181 255 
-40.53111 -47.41793 -6.29418 234 208 178 255 
-39.94898 -47.79768 -5.95091 167 155 190 255 
-39.65931 -47.43572 -5.05454 221 206 194 255 
-38.80668 -47.82562 -4.75504 141 128 177 255 
-40.36452 -47.0458 -5.35404 241 231 215 255 
-38.48501 -47.40666 -3.9851 169 152 161 255 
-37.5293 -47.73958 -3.70114 249 221 200 255 
-39.36966 -47.07374 -4.26907 248 233 209 255 
-6.88906 -47.1823 -3.15828 227 201 168 255 
-7.97088 -47.43365 -2.851 155 148 140 255 
-9.1447 -47.62599 -2.58772 161 155 180 255 
-10.27252 -47.81248 -2.43816 159 158 166 255 
-11.14426 -47.92066 -2.35784 209 186 188 255 
-36.21237 -47.59159 -2.7119 255 167 107 255 
-35.28078 -47.81711 -2.46937 255 156 78 255 
-37.17431 -47.30505 -2.98301 255 227 203 255 
-38.16336 -46.9877 -3.27328 255 238 228 255 
-9.1447 -47.06207 -2.18423 153 162 168 255 
-8.42789 -46.92012 -2.27145 208 193 178 255 
-10.27252 -47.24856 -2.06624 177 158 181 255 
-11.47226 -47.49172 -2.02784 251 217 188 255 
-12.52816 -47.4122 -1.81552 255 229 168 255 
-13.65598 -47.4122 -1.67086 255 231 181 255 
-14.73133 -47.328 -1.48055 255 237 201 255 
-15.91162 -47.54999 -1.44676 255 255 191 255 
-17.03944 -47.65952 -1.37964 255 247 114 255 
-18.16726 -47.72282 -1.35096 255 236 125 255 
-19.29508 -47.76261 -1.33033 255 241 183 255 
-20.4229 -47.79175 -1.31329 255 255 83 255 
-21.55072 -47.80439 -1.30628 255 255 107 255 
-22.67854 -47.80472 -1.30674 255 240 184 255 
-23.80636 -47.80373 -1.3087 255 255 130 255 
-24.93418 -47.80491 -1.31026 255 255 95 255 
-26.062 -47.80375 -1.3128 255 255 82 255 
-27.18982 -47.80811 -1.31201 255 255 95 255 
-28.31764 -47.81911 -1.31068 255 255 242 255 
-29.44545 -47.8673 -1.2852 255 216 197 255 
-30.57327 -47.93039 -1.2413 253 214 182 255 
-31.7011 -47.88089 -1.29172 255 179 166 255 
-32.82891 -47.70837 -1.45549 255 219 185 255 
-34.04371 -47.37707 -1.57039 255 241 237 255 
-34.97672 -47.42959 -1.97366 255 221 201 255 
-36.21237 -47.02768 -2.13956 255 188 118 255 
-36.8193 -46.87052 -2.29429 255 226 174 255 
-15.91162 -46.98609 -1.11754 255 230 197 255 
-15.07228 -46.89591 -1.16665 255 234 193 255 
-17.03944 -47.09561 -1.06231 255 255 198 255 
-18.16726 -47.1589 -1.02705 255 255 122 255 
-19.29508 -47.1987 -1.00128 255 240 193 255 
-20.4229 -47.22785 -0.98354 255 255 143 255 
-21.55072 -47.24047 -0.96711 255 255 118 255 
-22.67854 -47.24081 -0.94827 255 246 220 255 
-23.80636 -47.23983 -0.93372 255 255 173 255 
-24.93418 -47.241 -0.92366 255 251 202 255 
-26.062 -47.23984 -0.91913 255 240 172 255 
-27.18982 -47.24421 -0.90965 255 246 195 255 
-28.31764 -47.25519 -0.8848 255 229 190 255 
-29.44545 -47.3034 -0.82303 255 227 181 255 
-30.57327 -47.36649 -0.75487 255 221 189 255 
-31.7011 -47.31698 -0.78845 245 67 95 255 
-32.82891 -47.14446 -0.9319 255 217 173 255 
-33.72575 -46.97769 -1.07857 255 235 217 255 
-55.3853 -47.20742 1.60915 208 178 140 255 
-54.22501 -46.94623 1.66274 203 169 156 255 
-54.57929 -46.89385 0.96508 185 139 113 255 
-55.3853 -46.97357 0.83015 151 126 100 255 
-56.51312 -47.39563 1.60915 178 160 116 255 
-56.51312 -47.04984 0.70098 99 99 4 255 
-57.64094 -47.42641 1.60915 175 140 95 255 
-58.76876 -47.32792 1.60915 136 148 94 255 
-58.76876 -47.01403 0.69673 74 93 28 255 
-59.97211 -47.08325 1.52734 178 167 123 255 
-59.64653 -46.92802 0.88828 92 108 46 255 
-54.25748 -47.1796 2.73158 139 123 79 255 
-53.13302 -46.99451 2.64535 173 140 118 255 
-53.51119 -46.86203 2.07261 162 134 109 255 
-55.3853 -47.39848 2.73158 166 147 113 255 
-56.51312 -47.57941 2.73158 203 164 135 255 
-57.64094 -47.62458 2.73158 203 168 144 255 
-58.76876 -47.55627 2.73158 195 170 153 255 
-59.89658 -47.43737 2.73158 195 166 142 255 
-61.0244 -47.26452 2.73158 176 166 124 255 
-61.0244 -46.99332 1.79766 187 164 131 255 
-62.15222 -47.04594 2.73158 84 142 48 255 
-62.15222 -46.904 2.0303 171 138 123 255 
-62.84926 -46.88645 2.73158 127 149 83 255 
-62.73013 -46.85164 2.15712 183 169 136 255 
-52.00185 -47.1334 3.85401 174 140 101 255 
-50.91844 -46.93885 3.88901 175 133 109 255 
-51.32397 -46.87004 3.20634 183 147 113 255 
-52.00185 -46.9358 2.97987 179 147 112 255 
-53.12966 -47.31703 3.85401 152 154 99 255 
-54.25748 -47.47285 3.85401 100 128 55 255 
-55.3853 -47.58269 3.85401 79 132 45 255 
-56.51312 -47.66193 3.85401 106 125 58 255 
-57.64094 -47.6719 3.85401 181 161 114 255 
-58.76876 -47.59289 3.85401 127 141 64 255 
-59.89658 -47.47267 3.85401 192 178 132 255 
-61.0244 -47.26868 3.85401 201 187 130 255 
-62.15287 -46.99281 3.87095 102 184 68 255 
-62.87964 -46.89582 3.50809 115 179 104 255 
-50.78168 -46.98201 5.04355 148 155 122 255 
-50.21324 -46.87635 4.71413 127 135 81 255 
-50.21324 -46.87635 4.28649 126 140 83 255 
-52.00185 -47.2204 4.97644 199 160 124 255 
-53.12966 -47.40019 4.97644 192 170 125 255 
-54.25748 -47.5512 4.97644 88 148 77 255 
-55.3853 -47.57157 4.97644 78 140 73 255 
-56.51312 -47.48261 4.97644 169 156 92 255 
-57.64094 -47.34648 4.97644 236 202 156 255 
-58.73212 -47.14337 5.05303 228 197 142 255 
-59.89658 -47.11747 4.80985 242 202 161 255 
-61.0244 -46.99747 4.63228 187 161 92 255 
-61.77738 -46.89992 4.49317 154 152 50 255 
-52.00185 -47.07459 6.09887 229 188 154 255 
-51.09323 -46.93929 6.09887 175 158 111 255 
-53.12966 -47.17984 6.09887 238 196 165 255 
-54.25748 -47.2508 6.09887 214 192 141 255 
-55.35949 -47.12148 6.14081 212 188 151 255 
-56.51312 -47.05429 5.80631 252 237 199 255 
-57.64094 -46.93741 5.6311 255 222 177 255 
-58.33175 -46.87271 5.56102 255 233 205 255 
-52.00185 -46.90008 6.87398 233 197 155 255 
-51.3202 -46.87596 6.76746 203 183 123 255 
-53.12966 -46.92419 6.96061 220 191 137 255 
-54.25748 -46.92939 6.97329 215 175 137 255 
-54.96635 -46.89662 6.85478 246 211 189 255 
12.90867 -46.28438 -21.65741 57 52 49 255 
12.92119 -46.27811 -20.86975 125 119 79 255 
12.88895 -46.64985 -20.14661 150 140 122 255 
12.67695 -46.27811 -19.75029 148 137 110 255 
12.79545 -45.89798 -20.5158 145 132 122 255 
12.39672 -46.28438 -18.59461 122 148 79 255 
12.31222 -46.28438 -17.47217 129 158 82 255 
12.56533 -46.30256 -16.33876 184 183 136 255 
12.92995 -46.69063 -15.95727 184 183 136 255 
13.15087 -46.30256 -15.216 219 197 154 255 
12.72208 -45.93873 -15.58258 217 188 147 255 
13.72892 -46.28438 -14.3672 236 224 189 255 
14.22597 -46.28438 -13.80599 230 216 170 255 
15.63169 -46.35994 -12.67052 246 232 190 255 
16.29447 -46.78625 -12.45694 244 228 193 255 
14.78988 -46.28438 -13.26728 239 228 192 255 
17.92297 -46.57619 -11.46546 180 215 138 255 
18.55298 -46.80986 -11.32256 211 232 162 255 
16.80253 -46.27915 -11.87367 239 239 195 255 
15.98387 -46.03437 -12.25007 250 238 215 255 
24.68988 -46.53737 -10.3641 247 239 209 255 
23.56206 -46.64384 -10.30733 241 228 192 255 
22.43425 -46.63928 -10.31475 236 228 193 255 
21.30643 -46.52687 -10.38744 244 238 201 255 
20.13956 -46.2357 -10.46209 248 242 221 255 
18.97767 -46.3741 -10.90545 242 238 193 255 
17.92297 -46.01229 -11.12169 176 209 140 255 
17.31059 -45.77205 -11.27042 217 223 169 255 
24.68988 -45.97347 -10.03194 248 243 214 255 
23.56206 -46.07994 -9.95797 231 226 184 255 
22.43425 -46.07538 -9.95373 233 228 195 255 
21.30643 -45.96295 -10.0239 251 247 228 255 
20.48946 -45.82729 -10.10935 250 241 217 255 
-41.94726 -46.28438 -9.61516 225 189 165 255 
-41.96752 -46.28438 -8.49273 220 189 161 255 
-41.89308 -46.2796 -7.31027 237 198 180 255 
-41.26737 -46.82826 -6.85796 250 224 206 255 
-41.14405 -46.72727 -6.24787 206 195 168 255 
-41.90766 -46.08105 -6.33006 232 195 180 255 
-42.42262 -45.73094 -6.759 226 187 164 255 
-42.42262 -45.73094 -7.01429 225 189 163 255 
-40.73373 -46.58301 -5.03811 135 148 156 255 
-40.12153 -46.82656 -4.60575 221 211 218 255 
-41.60853 -45.96909 -5.12544 137 137 155 255 
-39.68569 -46.66652 -3.93816 220 210 209 255 
-38.91524 -46.79209 -3.52079 252 238 237 255 
-40.79522 -46.08166 -3.94511 112 118 155 255 
-41.43391 -45.81733 -4.28065 108 119 156 255 
-6.88906 -46.52438 -2.59706 229 205 171 255 
-7.67601 -46.74545 -2.39646 235 203 178 255 
-38.51078 -46.55458 -2.89172 255 243 235 255 
-37.57119 -46.70115 -2.525 255 250 244 255 
-39.65341 -46.05673 -2.80551 236 216 208 255 
-40.46701 -45.87139 -3.1296 204 187 185 255 
-6.88906 -45.96047 -2.14458 231 211 157 255 
-6.25242 -45.76739 -2.28291 196 177 139 255 
-8.03792 -46.33545 -1.9972 235 212 173 255 
-9.1447 -46.28438 -1.69373 212 190 173 255 
-10.19674 -46.23563 -1.45094 228 212 191 255 
-11.40034 -46.53257 -1.39996 255 223 185 255 
-12.52816 -46.68861 -1.3045 255 229 164 255 
-13.65598 -46.79011 -1.23642 255 236 154 255 
-14.32039 -46.83191 -1.20796 255 235 196 255 
-35.08455 -46.72778 -1.3285 255 232 199 255 
-34.47763 -46.83282 -1.21288 255 227 202 255 
-36.21237 -46.53283 -1.57835 255 247 242 255 
-37.25323 -46.37245 -1.85535 241 230 228 255 
-38.36993 -45.91488 -1.74886 248 183 153 255 
-39.31587 -45.81024 -2.11682 227 188 155 255 
-11.40034 -45.96867 -1.0452 253 226 193 255 
-10.52217 -45.82718 -1.13231 255 233 170 255 
-12.52816 -46.1247 -0.94597 255 228 136 255 
-13.65598 -46.22621 -0.86994 255 248 128 255 
-14.73133 -46.38733 -0.86804 255 240 184 255 
-15.91162 -46.28438 -0.68552 255 237 201 255 
-17.03944 -46.28438 -0.60934 255 233 195 255 
-18.16726 -46.28438 -0.54478 255 243 191 255 
-19.29508 -46.28438 -0.47324 255 248 213 255 
-20.37482 -46.18544 -0.35657 255 230 182 255 
-21.55072 -46.3538 -0.4059 255 251 230 255 
-22.67854 -46.40948 -0.38705 255 234 212 255 
-23.80636 -46.44783 -0.3725 255 233 199 255 
-24.93418 -46.47765 -0.36244 255 237 196 255 
-26.062 -46.49444 -0.35791 255 237 208 255 
-27.18982 -46.50814 -0.34843 255 231 202 255 
-28.31764 -46.53477 -0.32358 255 234 143 255 
-29.44545 -46.59008 -0.26182 255 243 204 255 
-30.57327 -46.65943 -0.19366 255 252 246 255 
-31.7011 -46.62902 -0.22724 255 108 92 255 
-32.82891 -46.49464 -0.37069 255 207 189 255 
-34.04371 -46.4537 -0.67694 249 219 193 255 
-35.01423 -46.08592 -0.57912 255 214 186 255 
-36.21237 -45.96892 -0.87989 255 216 189 255 
-37.34019 -45.79994 -1.08392 255 204 159 255 
-37.9286 -45.7259 -1.18758 252 151 85 255 
-21.55072 -45.78989 -0.02375 255 235 210 255 
-20.7187 -45.74351 -0.05785 254 224 184 255 
-22.67854 -45.84557 0.01773 255 235 202 255 
-23.80636 -45.88393 0.04989 255 245 124 255 
-24.93418 -45.91374 0.07999 255 241 106 255 
-26.062 -45.93054 0.09793 255 244 199 255 
-27.18982 -45.94423 0.1101 255 243 213 255 
-28.31764 -45.97084 0.12871 255 245 86 255 
-29.44545 -46.02617 0.14662 255 240 133 255 
-30.57327 -46.09552 0.15705 255 253 238 255 
-31.7011 -46.06511 0.14362 255 250 240 255 
-32.82891 -45.93072 0.08931 255 250 250 255 
-33.95673 -45.80276 0.00368 255 193 153 255 
-34.59142 -45.73837 -0.05438 255 165 108 255 
-52.00185 -46.18033 0.48672 119 127 75 255 
-50.87247 -45.89191 0.47563 147 133 84 255 
-51.24737 -45.76293 -0.17915 161 143 108 255 
-52.00185 -45.83989 -0.31287 143 125 92 255 
-53.12966 -46.38876 0.48672 130 123 76 255 
-53.12966 -45.93328 -0.46604 158 129 111 255 
-54.22501 -46.60885 0.54925 167 127 89 255 
-54.25748 -46.01342 -0.57462 159 129 107 255 
-55.3853 -46.67008 0.26893 133 124 89 255 
-50.87402 -46.27705 1.60915 145 139 84 255 
-49.68126 -45.93307 1.52634 150 141 84 255 
-50.01389 -45.77901 0.84237 150 143 94 255 
-52.00185 -46.5609 1.60915 117 129 65 255 
-53.13302 -46.75412 1.66274 155 134 100 255 
-53.82741 -46.81051 1.32432 172 147 124 255 
-60.39842 -46.83 1.09864 187 167 130 255 
-61.0244 -46.77874 1.23645 188 160 140 255 
-62.15222 -46.73298 1.46909 184 156 140 255 
-63.17566 -46.61115 1.71344 202 173 148 255 
-49.7462 -46.34595 2.73158 163 133 96 255 
-48.52229 -45.97609 2.63388 174 134 106 255 
-48.83417 -45.82058 1.84529 139 130 64 255 
-50.91844 -46.66686 2.79195 180 141 110 255 
-52.00185 -46.7844 2.41866 175 144 112 255 
-52.7593 -46.83592 2.21373 170 146 119 255 
-63.41317 -46.72927 2.73158 187 162 142 255 
-64.40785 -46.32947 2.73158 216 189 163 255 
-48.61839 -46.27174 3.85401 201 160 128 255 
-47.39741 -45.87722 3.88029 180 155 110 255 
-47.71126 -45.83484 2.9429 176 142 108 255 
-49.80086 -46.65692 3.88901 148 138 84 255 
-50.57211 -46.79896 3.53821 171 135 94 255 
-63.26536 -46.64546 3.87095 111 173 83 255 
-62.52925 -46.78978 4.25638 95 166 90 255 
-64.40785 -46.22381 3.85401 176 198 141 255 
-65.48407 -45.86549 3.82518 249 233 189 255 
-47.50784 -45.83454 4.90183 191 183 133 255 
-46.90047 -45.72897 4.47794 125 152 77 255 
-46.90047 -45.72897 4.27194 121 153 83 255 
-48.61839 -46.22303 4.97644 207 161 133 255 
-49.80086 -46.68483 5.04355 134 144 76 255 
-50.34419 -46.83929 5.46243 114 154 73 255 
-59.89658 -46.69322 5.37107 255 221 184 255 
-59.08364 -46.79136 5.47823 255 229 180 255 
-61.0244 -46.53625 5.19349 253 232 214 255 
-62.21565 -46.31 5.00518 255 255 255 255 
-63.28004 -46.08645 4.83211 254 244 219 255 
-64.40785 -45.88124 4.60673 243 242 180 255 
-65.07372 -45.7643 4.46839 255 249 241 255 
-48.56457 -45.95128 6.09257 211 177 142 255 
-47.89531 -45.76372 5.71422 211 192 167 255 
-49.7462 -46.4863 6.09887 192 174 116 255 
-50.52933 -46.79415 6.09887 137 155 84 255 
-56.51312 -46.54709 6.36752 255 247 227 255 
-55.71823 -46.76946 6.54292 248 228 208 255 
-57.59809 -46.2035 6.2373 255 210 119 255 
-58.73212 -46.363 5.86863 255 223 160 255 
-59.89658 -46.12932 5.84822 255 199 123 255 
-61.0244 -45.97235 5.73926 255 200 98 255 
-61.90205 -45.83021 5.62744 255 197 98 255 
-49.7462 -46.23437 7.2213 208 165 149 255 
-48.84231 -45.85654 7.2213 167 137 114 255 
-50.91617 -46.65169 7.17348 208 178 123 255 
-52.00185 -46.75111 7.43519 243 203 169 255 
-53.12966 -46.78187 7.52183 184 169 131 255 
-54.25748 -46.79239 7.5345 169 155 126 255 
-55.35949 -46.68677 7.22588 222 169 119 255 
-56.58552 -46.06356 7.18131 255 194 131 255 
-57.19359 -45.77364 6.78051 255 174 107 255 
-49.85096 -45.87193 8.32962 182 175 97 255 
-49.00664 -45.77822 7.94606 113 158 84 255 
-50.87402 -46.17469 8.34374 245 194 153 255 
-52.00185 -46.38809 8.34374 254 235 217 255 
-53.12966 -46.49081 8.34374 113 173 85 255 
-54.25748 -46.59107 8.34374 105 175 81 255 
-55.3853 -46.53354 8.34374 229 202 156 255 
-56.58552 -46.07079 8.29202 217 172 135 255 
-50.87402 -45.80915 9.03182 255 230 198 255 
-50.29673 -45.72415 8.9104 238 216 169 255 
-52.00185 -45.92136 9.21233 250 220 190 255 
-53.21058 -45.9466 9.5016 132 200 117 255 
-54.25748 -46.17055 9.46617 147 173 106 255 
-55.3853 -46.28775 9.46617 234 218 178 255 
-56.51312 -46.16583 9.46617 125 179 73 255 
-57.66608 -45.88494 9.48099 171 168 81 255 
-57.30691 -45.83317 8.63169 193 168 119 255 
-54.25748 -45.80794 10.15617 191 198 113 255 
-53.64048 -45.73357 10.04631 156 191 105 255 
-55.3853 -45.89582 10.30124 222 212 199 255 
-56.51312 -45.89409 10.33372 114 180 94 255 
-57.64094 -45.84155 10.35491 113 179 85 255 
-58.39568 -45.78066 10.26798 189 187 119 255 
-58.39568 -45.78066 9.86501 199 173 119 255 
12.30616 -45.21336 -21.83953 30 31 30 255 
12.86806 -45.62718 -21.50399 78 65 46 255 
12.86806 -45.62718 -21.2641 136 121 108 255 
12.57697 -45.21336 -20.86975 143 129 115 255 
12.11962 -45.08037 -19.66171 155 144 100 255 
11.95837 -45.36547 -18.59461 165 151 119 255 
11.6275 -44.80157 -18.59461 153 135 111 255 
11.6878 -44.65363 -19.2507 138 118 92 255 
11.87487 -45.47428 -17.47217 178 164 127 255 
11.58757 -44.91036 -17.47217 178 167 129 255 
11.93739 -45.1674 -16.24948 198 169 142 255 
11.63457 -44.79869 -16.55679 171 164 129 255 
12.48423 -45.16143 -15.216 222 191 159 255 
12.95605 -45.54062 -14.8343 225 202 165 255 
13.39339 -45.20281 -14.0678 232 203 170 255 
14.03329 -45.6169 -13.60317 241 224 202 255 
12.73476 -44.78874 -14.53242 225 198 157 255 
14.5271 -45.18862 -12.96567 231 227 198 255 
15.23199 -45.51225 -12.51363 238 231 193 255 
13.83074 -44.86502 -13.41771 234 220 208 255 
15.63169 -45.14441 -12.07981 220 230 183 255 
16.52588 -45.15657 -11.48181 238 241 204 255 
15.0209 -44.76036 -12.35646 179 214 145 255 
19.05079 -45.44512 -10.32639 244 241 215 255 
19.73759 -45.66357 -10.21003 248 240 218 255 
18.00126 -45.0832 -10.59212 199 218 140 255 
17.08979 -45.15657 -11.1325 248 247 210 255 
24.68988 -45.15657 -9.62966 210 222 200 255 
23.56206 -45.15657 -9.47415 176 220 159 255 
22.43425 -45.15657 -9.46397 236 234 207 255 
21.30643 -45.15657 -9.58358 227 240 192 255 
20.13956 -45.23521 -9.86803 241 231 200 255 
19.05079 -44.88121 -10.02142 244 233 212 255 
18.4294 -44.65835 -10.14486 245 237 219 255 
-42.32289 -45.5283 -9.61516 224 187 166 255 
-42.66488 -44.96439 -9.61516 215 181 145 255 
-42.36766 -45.64089 -8.49273 222 186 147 255 
-42.79603 -45.07698 -8.49273 210 178 121 255 
-42.40851 -45.7134 -7.76257 226 192 166 255 
-42.79579 -45.2651 -7.38117 214 181 149 255 
-42.98043 -45.15851 -6.39897 222 193 168 255 
-42.32106 -45.65497 -6.01071 231 197 185 255 
-42.17243 -45.57243 -5.12544 187 179 158 255 
-42.97929 -45.10383 -5.12544 224 188 175 255 
-43.72663 -44.68798 -5.12544 204 173 144 255 
-43.65421 -44.66203 -6.03894 212 187 165 255 
-41.82649 -45.50788 -3.94511 164 150 149 255 
-41.21887 -45.69118 -3.53237 144 122 168 255 
-42.97929 -44.99419 -4.00301 222 188 161 255 
-43.8124 -44.67404 -4.00301 203 191 156 255 
-40.79522 -45.59878 -2.80551 203 179 170 255 
-40.06774 -45.69425 -2.38131 238 196 171 255 
-41.85147 -45.26046 -2.88058 222 192 166 255 
-42.97929 -44.91802 -2.88058 155 162 156 255 
-44.12955 -44.69027 -2.90552 150 155 136 255 
-5.83038 -45.12531 -2.06732 183 168 165 255 
-6.91121 -45.10592 -1.55936 163 155 163 255 
-8.01688 -45.41457 -1.39138 223 192 174 255 
-9.1447 -45.60356 -1.26764 254 230 184 255 
-9.77029 -45.70008 -1.20949 255 232 186 255 
-39.65341 -45.56886 -1.74886 237 191 145 255 
-38.68049 -45.64776 -1.36853 244 142 77 255 
-40.72365 -45.30211 -1.75814 233 191 169 255 
-41.85147 -45.04758 -1.75814 234 219 208 255 
-42.97929 -44.86016 -1.75814 92 112 139 255 
-44.10711 -44.75327 -1.75814 158 151 140 255 
-45.23492 -44.70559 -1.75814 200 170 152 255 
-45.23492 -44.64168 -2.54082 187 174 158 255 
-46.36275 -44.70888 -1.75814 197 160 150 255 
-46.36275 -44.62241 -2.39654 156 143 130 255 
-47.55761 -44.71936 -1.85983 173 143 129 255 
-47.22635 -44.61098 -2.35564 149 129 125 255 
-49.7462 -44.9216 -1.75814 131 121 104 255 
-48.64107 -44.74843 -1.85983 160 134 107 255 
-49.03213 -44.59514 -2.32647 131 127 105 255 
-50.87402 -45.09473 -1.75814 145 124 106 255 
-8.01688 -44.85066 -1.05198 196 196 185 255 
-7.30191 -44.69622 -1.13971 162 167 166 255 
-9.1447 -45.03964 -0.92978 245 228 205 255 
-10.19674 -45.25711 -0.84423 255 232 187 255 
-11.40034 -45.15657 -0.54922 255 235 174 255 
-12.49004 -45.07946 -0.33225 255 245 165 255 
-13.65598 -45.30974 -0.30873 255 255 198 255 
-14.7838 -45.42522 -0.2473 255 241 198 255 
-15.91162 -45.49553 -0.20371 255 251 125 255 
-17.03944 -45.52733 -0.18274 255 253 190 255 
-18.16726 -45.58638 -0.15345 255 227 194 255 
-19.29508 -45.66959 -0.10768 254 223 176 255 
-19.96684 -45.71133 -0.08085 255 224 180 255 
-36.21237 -45.54929 -0.31867 255 221 192 255 
-35.34331 -45.6473 -0.16725 255 190 146 255 
-37.34019 -45.44604 -0.52271 255 215 188 255 
-38.36993 -45.39366 -0.74235 255 152 55 255 
-39.59583 -45.13656 -0.63571 243 142 66 255 
-40.72365 -44.96838 -0.63571 245 168 101 255 
-41.85147 -44.84093 -0.63571 163 159 163 255 
-42.97929 -44.74765 -0.63571 114 112 149 255 
-44.10711 -44.69232 -0.63571 161 142 153 255 
-45.23492 -44.70901 -0.63571 200 165 137 255 
-46.36275 -44.80347 -0.63571 216 184 157 255 
-47.49057 -44.96263 -0.63571 198 177 148 255 
-48.61839 -45.1198 -0.63571 165 151 115 255 
-49.7462 -45.31159 -0.63571 179 155 129 255 
-50.87247 -45.54211 -0.58626 174 147 125 255 
-52.00185 -45.5807 -0.87408 161 129 119 255 
-53.12966 -45.6347 -1.02725 155 128 111 255 
-13.65598 -44.74582 0.00516 255 237 193 255 
-12.84057 -44.65211 -0.04336 255 235 190 255 
-14.7838 -44.86132 0.06811 255 246 212 255 
-15.91162 -44.93162 0.11219 255 255 133 255 
-17.03944 -44.96341 0.14373 255 254 179 255 
-18.16726 -45.02246 0.21027 255 229 184 255 
-19.29508 -45.10569 0.28815 253 228 184 255 
-20.37482 -45.26386 0.25439 248 226 197 255 
-21.55072 -45.15657 0.41451 233 217 204 255 
-22.67854 -45.15657 0.51473 251 226 189 255 
-23.86509 -45.05034 0.6833 255 249 138 255 
-24.93418 -45.19729 0.64122 255 255 53 255 
-26.062 -45.23036 0.65914 255 249 196 255 
-27.18982 -45.25463 0.67132 255 249 205 255 
-28.31764 -45.28217 0.68992 255 255 36 255 
-29.44545 -45.2981 0.70784 255 255 86 255 
-30.57327 -45.30415 0.71827 255 255 241 255 
-31.7011 -45.30241 0.70484 255 250 223 255 
-32.82891 -45.29655 0.65053 255 183 137 255 
-33.95673 -45.27937 0.56489 255 165 98 255 
-35.01423 -45.28213 0.38654 255 163 117 255 
-36.22598 -44.92048 0.58283 255 219 188 255 
-37.34019 -44.88214 0.40988 248 203 174 255 
-38.46801 -44.80259 0.3386 248 207 182 255 
-39.59583 -44.74248 0.28424 255 217 175 255 
-40.72365 -44.6927 0.20734 255 209 159 255 
-41.85147 -44.65674 0.13724 196 170 160 255 
-42.97929 -44.63031 0.08456 199 173 163 255 
-44.15027 -44.6225 0.42213 233 202 187 255 
-45.23492 -44.72407 0.48672 227 201 184 255 
-46.36275 -44.9168 0.48672 173 154 117 255 
-47.49057 -45.14988 0.48672 106 134 80 255 
-48.61839 -45.39469 0.48672 111 130 59 255 
-49.68126 -45.61332 0.47563 143 148 100 255 
-50.49549 -45.67383 0.09408 171 150 120 255 
-24.93418 -44.63338 1.07877 255 252 75 255 
-24.28019 -44.60359 1.0561 255 247 135 255 
-26.062 -44.66646 1.10594 255 255 202 255 
-27.18982 -44.69073 1.12924 255 252 235 255 
-28.31764 -44.71827 1.15757 255 255 243 255 
-29.44545 -44.7342 1.17486 255 247 210 255 
-30.57327 -44.74025 1.18578 240 213 182 255 
-31.7011 -44.73849 1.18963 253 218 195 255 
-32.82891 -44.73265 1.18956 255 223 182 255 
-33.95673 -44.71547 1.1836 255 165 93 255 
-35.08455 -44.66351 1.13476 255 237 220 255 
-35.8591 -44.6154 1.07945 255 211 177 255 
-45.23492 -44.82058 1.60915 194 150 134 255 
-44.45674 -44.64275 1.60915 227 187 166 255 
-46.36275 -45.10674 1.60915 185 154 125 255 
-47.49057 -45.40187 1.60915 130 143 61 255 
-48.52229 -45.63899 1.52634 134 135 62 255 
-49.26201 -45.70593 1.097 145 135 79 255 
-45.23492 -44.96695 2.73158 160 154 108 255 
-44.38751 -44.69054 2.73158 157 158 109 255 
-46.36275 -45.34209 2.73158 180 148 113 255 
-47.39741 -45.6432 2.63388 178 144 111 255 
-48.08228 -45.71287 2.19461 156 141 84 255 
-45.23492 -45.06043 3.85401 193 163 125 255 
-44.41262 -44.70936 3.85401 162 169 104 255 
-46.4598 -45.54218 3.88029 124 155 85 255 
-46.95937 -45.70708 3.52366 170 144 102 255 
-65.8256 -45.58908 4.18011 244 219 192 255 
-45.15422 -44.90365 5.02348 205 161 134 255 
-44.53484 -44.66546 4.68069 232 172 168 255 
-46.4598 -45.50326 4.90183 120 156 76 255 
-47.14342 -45.66481 5.22623 153 169 94 255 
-63.28004 -45.56121 5.39333 255 213 146 255 
-62.65394 -45.69668 5.51718 255 205 141 255 
-64.40785 -45.31657 5.16795 255 211 148 255 
-65.42589 -45.10385 4.93829 255 255 239 255 
-66.66351 -44.78111 4.60436 243 248 181 255 
-67.23636 -44.59939 4.42272 216 229 153 255 
-46.36275 -45.21464 6.09887 169 177 105 255 
-45.45006 -44.79872 6.09887 204 183 137 255 
-47.50784 -45.57883 6.09257 211 194 148 255 
-48.15274 -45.68172 6.46251 210 177 165 255 
-58.76876 -45.48923 6.49507 255 177 81 255 
-57.94548 -45.60984 6.57915 255 185 91 255 
-59.89658 -45.36011 6.40943 255 179 79 255 
-61.06686 -45.09966 6.35572 255 186 81 255 
-62.22768 -45.25507 5.94885 255 194 106 255 
-63.28004 -44.99731 5.82695 255 206 108 255 
-64.40785 -44.75266 5.655 255 203 120 255 
-65.02619 -44.61861 5.55759 255 201 107 255 
-46.28544 -44.87942 7.27184 223 201 143 255 
-45.65629 -44.67233 6.9314 239 199 149 255 
-47.49057 -45.37319 7.2213 175 156 123 255 
-48.2784 -45.63838 7.2213 168 141 127 255 
-57.59809 -45.49057 7.18131 255 160 55 255 
-57.00973 -45.68151 7.52879 243 161 86 255 
-58.80084 -44.9442 7.2198 252 151 67 255 
-59.89658 -44.7962 6.85899 255 164 75 255 
-60.71923 -44.6858 6.74072 255 171 70 255 
-47.43971 -44.96318 8.40912 221 198 149 255 
-46.60985 -44.75665 8.07856 236 209 167 255 
-48.62578 -45.47871 8.32962 126 157 60 255 
-49.54484 -45.61584 8.69435 179 193 122 255 
-57.00973 -45.68151 7.8834 232 160 100 255 
-57.66608 -45.51911 8.29202 226 154 114 255 
-58.80084 -44.93165 8.30577 231 138 60 255 
-48.61839 -44.90738 9.28982 255 243 217 255 
-47.78174 -44.74098 9.08747 255 233 192 255 
-49.80072 -45.14568 9.44714 255 249 216 255 
-50.87402 -45.37411 9.59304 247 228 205 255 
-52.00185 -45.5273 9.77355 214 188 149 255 
-52.8886 -45.63162 9.89936 234 211 167 255 
-58.05878 -45.65741 9.11672 212 162 103 255 
-58.77048 -45.48641 9.48099 231 189 154 255 
-59.93119 -44.95296 9.41108 216 145 103 255 
-59.57833 -44.7024 8.65461 223 135 72 255 
-50.87402 -44.81021 10.25863 174 194 123 255 
-50.05659 -44.6755 10.11367 203 218 157 255 
-52.00185 -44.96339 10.43739 211 221 146 255 
-53.16756 -45.1562 10.5733 251 238 202 255 
-54.25748 -45.37693 10.71739 251 241 209 255 
-55.3853 -45.50349 10.86246 213 202 167 255 
-56.51312 -45.54494 10.89494 127 188 95 255 
-57.64094 -45.58835 10.91613 128 190 95 255 
-58.77048 -45.61472 10.62071 232 204 155 255 
-59.89658 -45.40557 10.5886 189 165 125 255 
-61.10662 -44.94229 10.52762 190 159 109 255 
-60.7855 -44.76832 9.74852 204 156 111 255 
-54.25748 -44.81303 11.41739 255 255 255 255 
-53.44652 -44.68076 11.26403 255 244 207 255 
-55.3853 -44.93958 11.54322 255 255 255 255 
-56.51312 -44.98104 11.60123 211 217 146 255 
-57.67335 -44.95365 11.79072 148 199 93 255 
-58.76876 -45.14337 11.71103 255 238 172 255 
-59.89658 -45.1425 11.71103 207 180 142 255 
-61.0244 -44.97451 11.71103 101 181 87 255 
-62.26287 -44.7011 11.62617 114 179 85 255 
-61.9607 -44.72833 10.86112 188 169 115 255 
-58.76876 -44.666 12.36214 255 244 221 255 
-58.07088 -44.61861 12.30324 218 210 147 255 
-59.89658 -44.69765 12.40825 219 214 157 255 
-61.0244 -44.66923 12.3854 107 188 104 255 
-62.15222 -44.62646 12.3388 125 181 85 255 
-62.77251 -44.60377 12.30259 154 185 102 255 
-62.77251 -44.60377 11.94373 142 179 103 255 
11.94755 -43.99884 -20.89562 124 114 97 255 
11.84769 -44.35486 -19.99899 129 106 83 255 
11.58319 -43.99884 -19.66171 121 112 91 255 
11.66121 -43.60298 -20.55891 123 112 87 255 
11.41854 -44.02875 -18.59461 148 135 109 255 
11.3599 -44.02875 -17.47217 116 130 91 255 
11.50263 -44.13116 -16.24948 178 170 126 255 
11.7287 -44.57537 -15.80851 207 181 145 255 
11.95275 -44.13116 -15.20582 201 188 136 255 
11.60513 -43.82348 -15.56564 179 171 128 255 
12.56829 -44.02875 -14.35526 208 185 138 255 
13.09412 -44.02875 -13.79405 198 197 141 255 
13.65803 -44.02875 -13.28542 218 213 158 255 
14.33938 -44.02875 -12.72419 211 216 158 255 
15.7339 -44.05411 -11.64334 158 194 131 255 
16.29661 -44.44695 -11.33983 193 218 157 255 
14.90329 -44.02875 -12.25992 167 199 131 255 
16.7216 -44.05411 -10.95654 233 235 200 255 
17.66794 -44.02875 -10.3549 245 239 227 255 
16.15423 -43.69508 -11.23862 154 196 119 255 
25.8177 -44.02875 -9.45181 244 244 228 255 
24.61054 -43.94351 -9.20692 206 232 180 255 
23.56206 -44.23055 -9.13134 182 224 157 255 
22.43425 -44.34571 -9.12541 238 244 203 255 
21.30643 -44.25158 -9.17483 227 244 201 255 
20.20878 -43.97457 -9.26913 171 212 124 255 
19.05079 -44.02875 -9.6635 233 226 184 255 
18.23184 -44.02875 -10.03249 245 236 217 255 
-43.22879 -44.205 -9.61516 209 178 143 255 
23.56206 -43.66665 -9.01289 222 243 197 255 
24.18171 -43.51074 -9.04438 218 229 194 255 
22.43425 -43.78181 -8.97783 244 246 206 255 
21.30643 -43.68767 -8.98987 232 240 185 255 
20.60484 -43.5625 -9.02481 174 206 134 255 
-43.35994 -44.3217 -8.49273 202 172 89 255 
-43.78103 -43.75778 -8.49273 200 174 138 255 
-43.44935 -44.48031 -7.3703 210 166 144 255 
-44.16025 -43.89261 -7.39368 199 162 150 255 
-43.53824 -44.58875 -6.78722 207 177 155 255 
-44.06093 -44.34157 -6.347 196 164 153 255 
-45.21371 -43.72198 -6.20593 181 157 91 255 
-44.82363 -43.57569 -7.03513 187 151 136 255 
-44.29054 -44.41695 -5.12544 196 167 142 255 
-45.23492 -44.05632 -5.12544 194 162 140 255 
-46.1967 -43.66809 -5.12544 181 149 120 255 
-45.95816 -43.5561 -5.80383 170 137 68 255 
-44.37631 -44.50894 -4.00301 194 159 146 255 
-45.23492 -44.29125 -4.00301 188 158 145 255 
-46.47264 -43.8724 -4.11361 176 151 141 255 
-44.52046 -44.56581 -3.2963 174 167 149 255 
-45.23492 -44.50198 -3.10204 174 157 138 255 
-46.36275 -44.40341 -2.95776 119 104 121 255 
-47.55761 -44.35608 -2.7901 120 125 116 255 
-47.49057 -43.73673 -3.90204 155 136 122 255 
-48.64107 -44.35099 -2.7726 143 136 110 255 
-6.55003 -44.44504 -1.28574 163 152 153 255 
-47.97824 -44.5877 -2.30177 148 124 117 255 
-48.28024 -44.5877 -2.30177 157 130 112 255 
-5.76124 -43.64233 -1.08719 223 194 164 255 
-6.91121 -44.05296 -0.92203 209 204 195 255 
-8.01688 -44.02875 -0.59716 220 213 199 255 
-9.09857 -43.98711 -0.32654 255 234 189 255 
-10.27252 -44.31115 -0.2433 254 227 196 255 
-11.40034 -44.48253 -0.13973 255 235 200 255 
-12.08869 -44.56382 -0.0904 255 236 208 255 
-10.27252 -43.74723 0.07782 255 240 175 255 
-9.44376 -43.58343 -0.00982 254 235 175 255 
-11.40034 -43.91863 0.1662 255 238 151 255 
-12.49004 -44.12423 0.18537 255 240 200 255 
-13.65598 -44.02875 0.37647 255 250 214 255 
-14.7838 -44.02875 0.52448 255 255 209 255 
-16.01247 -43.91817 0.72353 255 233 173 255 
-17.03944 -44.07427 0.70494 255 232 173 255 
-18.16726 -44.16403 0.77149 255 228 189 255 
-19.29508 -44.26159 0.84937 241 229 193 255 
-20.4229 -44.30638 0.88534 143 186 119 255 
-21.55072 -44.38147 0.92498 156 180 117 255 
-22.67854 -44.50006 0.98373 255 233 178 255 
-23.52833 -44.55789 1.02265 255 248 191 255 
-37.34019 -44.55151 0.9711 241 163 126 255 
-36.61099 -44.57635 1.02104 255 193 157 255 
-38.46801 -44.52635 0.89982 255 212 184 255 
-39.59583 -44.51458 0.84546 248 215 197 255 
-40.72365 -44.4977 0.76855 238 219 220 255 
-41.85147 -44.48931 0.69846 234 190 174 255 
-42.97929 -44.5097 0.64578 223 185 159 255 
-43.80309 -44.54747 0.75321 238 207 190 255 
-17.03944 -43.51036 1.07751 255 234 169 255 
-16.45564 -43.46851 1.05033 255 236 174 255 
-18.16726 -43.60012 1.13001 255 232 158 255 
-19.29508 -43.69769 1.18305 251 222 190 255 
-20.4229 -43.74248 1.21626 162 197 124 255 
-21.55072 -43.81755 1.28954 157 182 112 255 
-22.67854 -43.93615 1.3985 250 244 200 255 
-23.86509 -44.12067 1.39643 255 251 223 255 
-24.93418 -44.02875 1.56977 255 255 240 255 
-26.14624 -43.91889 1.74968 216 214 188 255 
-27.18982 -44.06549 1.69045 218 208 187 255 
-28.31764 -44.1215 1.71879 237 225 194 255 
-29.44545 -44.13531 1.73607 242 224 194 255 
-30.57327 -44.15067 1.74699 208 202 159 255 
-31.7011 -44.19199 1.75085 242 224 193 255 
-32.82891 -44.2106 1.75078 255 231 209 255 
-33.95673 -44.2286 1.74481 255 237 226 255 
-35.08455 -44.23455 1.69598 254 218 169 255 
-36.22598 -44.29656 1.51582 249 170 118 255 
-37.34019 -44.21164 1.60915 255 149 82 255 
-38.46801 -44.20845 1.60915 255 220 176 255 
-39.59583 -44.21331 1.60915 235 181 166 255 
-40.72365 -44.21322 1.60915 228 172 159 255 
-41.85147 -44.25621 1.60915 226 187 146 255 
-42.97929 -44.36693 1.60915 238 206 180 255 
-43.89284 -44.51232 1.60915 244 215 196 255 
-27.18982 -43.50159 2.20622 155 162 181 255 
-26.57832 -43.46973 2.17498 151 162 168 255 
-28.31764 -43.5576 2.26267 231 219 200 255 
-29.44545 -43.5714 2.2768 236 227 180 255 
-30.57327 -43.58676 2.29513 121 163 89 255 
-31.7011 -43.62807 2.35522 169 181 107 255 
-32.82891 -43.64668 2.40297 255 243 228 255 
-33.95673 -43.66469 2.44855 242 207 168 255 
-35.08455 -43.67064 2.46981 253 220 193 255 
-36.21237 -43.67087 2.49085 245 153 72 255 
-37.34019 -43.68888 2.559 255 202 119 255 
-38.46801 -43.71084 2.64693 227 194 166 255 
-39.5421 -43.69559 2.82827 246 137 91 255 
-40.72365 -43.83642 2.73158 239 150 83 255 
-41.85147 -43.99769 2.73158 252 217 200 255 
-42.97929 -44.24605 2.73158 222 201 177 255 
-43.8236 -44.48864 2.73158 166 162 120 255 
-40.72365 -43.55699 3.53651 255 202 140 255 
-39.88224 -43.49923 3.37629 241 133 50 255 
-41.82133 -43.67383 3.88664 245 213 191 255 
-42.97929 -44.05432 3.85401 208 190 142 255 
-43.84871 -44.42334 3.85401 178 175 115 255 
-42.89431 -43.72628 5.04659 168 172 119 255 
-42.17718 -43.54377 4.71921 201 172 116 255 
-44.13819 -44.33634 5.02348 217 181 148 255 
-44.72445 -44.56054 5.42898 213 175 143 255 
-66.71794 -44.04366 5.20847 255 212 126 255 
-65.77807 -44.42954 5.40819 255 206 119 255 
-67.68392 -43.92989 4.62395 254 247 196 255 
-68.37937 -43.48804 4.43401 255 252 239 255 
-44.10711 -44.01016 6.09887 187 183 130 255 
-43.27246 -43.57316 6.09887 157 168 92 255 
-44.88615 -44.46575 6.09887 222 181 146 255 
-62.15222 -44.42827 6.54552 255 186 82 255 
-61.4711 -44.55529 6.63229 255 181 71 255 
-63.28004 -44.19889 6.38816 255 186 101 255 
-64.33589 -43.93561 6.24583 255 186 83 255 
-65.45556 -44.04366 5.7854 255 193 76 255 
-66.3783 -43.67768 5.65509 255 189 98 255 
-44.16157 -43.65267 7.12823 185 186 117 255 
-43.51181 -43.47941 6.69204 178 169 132 255 
-45.26219 -44.29782 7.27184 237 200 166 255 
-45.85797 -44.55465 7.67968 246 218 174 255 
-59.89658 -44.40954 7.42021 241 142 75 255 
-59.19816 -44.52826 7.59295 236 132 76 255 
-61.06686 -44.26272 7.15743 253 155 65 255 
-62.1009 -43.81035 7.22884 255 148 58 255 
-63.28004 -43.63498 6.83009 255 172 82 255 
-63.91197 -43.49758 6.68712 255 171 82 255 
-45.28067 -43.74174 8.29864 203 182 141 255 
-44.57382 -43.52446 7.89444 230 212 197 255 
-46.28544 -44.34712 8.40912 255 234 193 255 
-47.02988 -44.53343 8.82685 255 235 200 255 
-59.19816 -44.52826 7.90632 231 136 71 255 
-59.93119 -44.41503 8.30577 232 130 67 255 
-61.0244 -43.98726 8.34374 224 138 30 255 
-61.81547 -43.59711 8.34374 227 134 40 255 
-46.47118 -43.69578 9.40687 141 180 77 255 
-45.6871 -43.52878 8.9932 153 177 101 255 
-47.43971 -44.22933 9.46343 255 235 202 255 
-48.61839 -44.43029 9.85103 255 246 218 255 
-49.30472 -44.55078 9.98387 255 252 223 255 
-60.33022 -44.54075 9.00023 206 129 67 255 
-61.10662 -44.39812 9.41108 207 139 48 255 
-62.1597 -43.81594 9.45577 230 147 78 255 
-47.49057 -43.61901 10.19238 161 176 92 255 
-46.91941 -43.46907 10.03246 136 183 87 255 
-48.61839 -43.86639 10.4463 236 237 172 255 
-49.66106 -44.05761 10.61649 255 245 202 255 
-50.87402 -44.28117 10.81985 255 255 237 255 
-52.00185 -44.45724 10.9986 255 255 236 255 
-52.69463 -44.55109 11.1003 255 241 214 255 
-61.53737 -44.5631 10.11283 203 156 104 255 
-62.26287 -44.41193 10.52762 210 161 108 255 
-63.26062 -43.84178 10.59101 216 154 95 255 
-62.8717 -43.57044 9.82299 232 135 53 255 
-50.87402 -43.71727 11.48799 249 230 207 255 
-50.01741 -43.56446 11.28438 252 241 227 255 
-51.96516 -43.85513 11.78858 254 221 174 255 
-53.09421 -44.2816 11.66731 247 209 155 255 
-54.25748 -44.3782 11.97861 252 212 139 255 
-55.3853 -44.45455 12.10443 250 225 181 255 
-56.51312 -44.50132 12.16244 255 246 227 255 
-57.31899 -44.54916 12.21799 252 242 220 255 
-62.71258 -44.59133 11.19544 166 177 104 255 
-63.20108 -44.41241 11.62617 200 162 109 255 
-64.40785 -43.93701 11.71103 215 159 133 255 
-64.40785 -43.5768 11.01122 208 137 63 255 
-65.20139 -43.5974 11.71103 206 160 112 255 
-64.97293 -43.46608 11.14808 203 134 48 255 
-53.12966 -43.67112 12.55009 255 228 171 255 
-52.31661 -43.54403 12.3785 246 218 172 255 
-54.25748 -43.81427 12.74868 255 232 17 255 
-55.28177 -43.83533 12.94384 255 228 152 255 
-56.51312 -44.04346 12.83346 254 247 227 255 
-57.67335 -44.23514 12.73981 254 245 215 255 
-58.76876 -44.21094 12.92336 254 243 229 255 
-59.89658 -44.24721 12.96947 229 220 159 255 
-61.0244 -44.28132 12.94662 127 191 87 255 
-62.15222 -44.30989 12.90001 182 200 116 255 
-63.20108 -44.31595 12.73942 235 213 162 255 
-64.40785 -44.02283 12.83346 189 164 116 255 
-65.45921 -43.66859 12.83346 119 174 96 255 
-56.51312 -43.57088 13.56288 214 190 123 255 
-55.5887 -43.51457 13.46989 254 255 233 255 
-57.64094 -43.61448 13.62802 248 208 159 255 
-58.76876 -43.64702 13.67039 253 229 199 255 
-59.89658 -43.68329 13.72998 253 237 205 255 
-61.0244 -43.7174 13.78136 249 235 196 255 
